# .PCD v0.7 - Point Cloud Data file format
VERSION 0.7
FIELDS x y z rgb
SIZE 4 4 4 4
TYPE F F F U
COUNT 1 1 1 1
WIDTH 258
HEIGHT 1
VIEWPOINT 0 0 0 1 0 0 0
POINTS 258
DATA ascii
0.059905525 -0.19759499 0.0095099676 4278190080
0.05851052 -0.19813006 0.0095475353 4278190080
0.057051614 -0.19886 0.0095974114 4278190080
0.062759854 -0.19649267 0.0094326334 4278190080
0.059909455 -0.1980755 0.010368083 4278190080
0.065594159 -0.19265747 0.0051859953 4278190080
0.065594174 -0.19265747 0.0051860251 4278190080
0.057046529 -0.19819793 0.0085153347 4278190080
0.062751569 -0.19537124 0.0077005541 4278190080
0.065585494 -0.19146539 0.0033861389 4278190080
0.065585509 -0.19146538 0.003386138 4278190080
0.063587755 -0.19009446 0.00044444297 4278190080
0.062745653 -0.19458713 0.0064515816 4278190080
0.062745653 -0.19458719 0.006451604 4278190080
0.059889741 -0.19547184 0.0061992267 4278190080
0.057037938 -0.19716132 0.0066292109 4278190080
0.057037938 -0.19716136 0.0066292323 4278190080
0.059891369 -0.19570586 0.0065299347 4278190080
0.059891369 -0.19570592 0.0065299571 4278190080
0.062730826 -0.19242898 0.0034548528 4278190080
0.051316742 -0.19812602 0.0038442016 4278190080
0.062733017 -0.19274472 0.003899619 4278190080
0.06042359 -0.19545101 0.0065124519 4278190080
0.060423724 -0.19545101 0.0065124696 4278190080
0.054182902 -0.19833383 0.0064458372 4278190080
0.054564957 -0.19831653 0.0067086518 4278190080
0.054565061 -0.19831653 0.0067086695 4278190080
0.051319454 -0.19846632 0.0044312561 4278190080
0.054184284 -0.19853678 0.0067235166 4278190080
0.054184284 -0.19853684 0.006723539 4278190080
0.050539128 -0.19850318 0.0038700458 4278190080
0.05987031 -0.19286257 0.0021205805 4278190080
0.057023454 -0.19514059 0.0036410214 4278190080
0.056001902 -0.1956386 0.0036751302 4278190080
0.054170083 -0.19662908 0.0037423493 4278190080
0.057026766 -0.19559526 0.0043304805 4278190080
0.059877258 -0.19383369 0.0035509747 4278190080
0.062713817 -0.19013079 -0.00010424294 4278190080
0.062716641 -0.19052964 0.00047418196 4278190080
0.06270206 -0.18847266 -0.002516279 4278190080
0.061955541 -0.19277287 0.0034786221 4278190080
0.058722053 -0.1902831 -0.0023914576 4278190080
0.057007931 -0.19297422 0.00044131745 4278190080
0.054155711 -0.1946549 0.00075702742 4278190080
0.057008926 -0.19310556 0.00065191928 4278190080
0.057286479 -0.19296104 0.00064207893 4278190080
0.059848137 -0.18973495 -0.0024290057 4278190080
0.059851706 -0.19023705 -0.0016965438 4278190080
0.051299974 -0.19585803 0.0003368631 4278190080
0.051944759 -0.19582534 0.00083660241 4278190080
0.051302519 -0.19621193 0.00086261239 4278190080
0.059774376 -0.18760608 -0.0054237507 4278190080
0.059833493 -0.18760374 -0.0053884685 4278190080
0.059833311 -0.18757835 -0.0054256553 4278190080
0.059862673 -0.19177558 0.00056043826 4278190080
0.054163586 -0.19572231 0.0024035908 4278190080
0.05306254 -0.19314817 -0.0021959031 4278190080
0.051288035 -0.1941916 -0.0021255715 4278190080
0.054141115 -0.19259085 -0.0022338731 4278190080
0.056969795 -0.18774143 -0.0074867755 4278190080
0.056980237 -0.18917672 -0.0053175008 4278190080
0.056965679 -0.18712664 -0.008307538 4278190080
0.056988634 -0.19036242 -0.003596724 4278190080
0.054144721 -0.1931019 -0.0014958298 4278190080
0.048434969 -0.19579419 -0.0020171525 4278190080
0.056994822 -0.19123577 -0.0023269122 4278190080
0.048081778 -0.1960116 -0.0020025503 4278190080
0.048436433 -0.19599259 -0.001711105 4278190080
0.045571331 -0.19615769 -0.0042506959 4278190080
0.045571346 -0.19615769 -0.00425064 4278190080
0.056593712 -0.18511622 -0.011293999 4278190080
0.054105811 -0.18788441 -0.0096701905 4278190080
0.051274266 -0.19245568 -0.0050960835 4278190080
0.054113187 -0.18896459 -0.0081844972 4278190080
0.054097991 -0.18666285 -0.011190165 4278190080
0.054124724 -0.19050387 -0.0057554012 4278190080
0.054127365 -0.19086252 -0.0052039148 4278190080
0.051280607 -0.19324757 -0.0037225159 4278190080
0.054089185 -0.18521966 -0.012855868 4278190080
0.054741599 -0.19046965 -0.0052302284 4278190080
0.055960212 -0.18779224 -0.0082630645 4278190080
0.048407063 -0.19217689 -0.0079672216 4278190080
0.046185825 -0.1935187 -0.0078769634 4278190080
0.045554359 -0.1939228 -0.007849901 4278190080
0.045554344 -0.19392286 -0.0078498973 4278190080
0.051245563 -0.1885232 -0.011065733 4278190080
0.051255997 -0.19065504 -0.0080706077 4278190080
0.051260326 -0.19065259 -0.0080707734 4278190080
0.051260341 -0.19065483 -0.0080674822 4278190080
0.052095558 -0.18797852 -0.011102211 4278190080
0.048416167 -0.1933998 -0.0060549797 4278190080
0.042701587 -0.19564256 -0.0077342046 4278190080
0.048421267 -0.19408572 -0.0049859621 4278190080
0.049696386 -0.19333327 -0.0050366661 4278190080
0.042706419 -0.19631964 -0.006739201 4278190080
0.041612484 -0.19638118 -0.007684933 4278190080
0.052118052 -0.18530394 -0.014131169 4278190080
0.052118156 -0.18530394 -0.014131154 4278190080
0.045568392 -0.19576259 -0.0048729302 4278190080
0.045568377 -0.19576263 -0.0048729274 4278190080
0.045539819 -0.19188207 -0.010839351 4278190080
0.045539804 -0.1918821 -0.01083935 4278190080
0.047417108 -0.19084126 -0.010909838 4278190080
0.042687438 -0.19370152 -0.010675562 4278190080
0.048392821 -0.19025479 -0.010949302 4278190080
0.048396572 -0.1907939 -0.010188141 4278190080
0.051229607 -0.18591803 -0.014090243 4278190080
0.051229607 -0.18591796 -0.014090262 4278190080
0.045551721 -0.19355196 -0.0083860764 4278190080
0.04555174 -0.19355196 -0.0083860019 4278190080
0.051225737 -0.18535215 -0.014870348 4278190080
0.051242311 -0.18801789 -0.011700641 4278190080
0.039835028 -0.19562542 -0.010589079 4278190080
0.043831088 -0.19102687 -0.013749891 4278190080
0.043831192 -0.19102687 -0.013749878 4278190080
0.045525726 -0.19001769 -0.01381785 4278190080
0.045525711 -0.19001773 -0.013817847 4278190080
0.045525726 -0.19001774 -0.013817831 4278190080
0.045525711 -0.19001779 -0.013817828 4278190080
0.039821092 -0.19382361 -0.013563691 4278190080
0.039821092 -0.19382367 -0.013563672 4278190080
0.039721474 -0.19388828 -0.013559365 4278190080
0.039721563 -0.19388828 -0.01355935 4278190080
0.039821513 -0.19388288 -0.013476613 4278190080
0.045532472 -0.19093917 -0.012408291 4278190080
0.045532487 -0.19093916 -0.012408224 4278190080
0.048316151 -0.18549007 -0.016970504 4278190080
0.047952786 -0.18816546 -0.013940459 4278190080
0.047952875 -0.18816546 -0.013940444 4278190080
0.048362147 -0.18548767 -0.016933966 4278190080
0.048361938 -0.18545356 -0.016972912 4278190080
0.048377369 -0.18784945 -0.013961411 4278190080
0.048377369 -0.18784951 -0.013961392 4278190080
0.04837928 -0.18814234 -0.013585933 4278190080
0.04268723 -0.19367352 -0.010719201 4278190080
0.042639308 -0.19370423 -0.010717143 4278190080
0.0426425 -0.18710595 -0.01971522 4278190080
0.042650379 -0.18844743 -0.018260788 4278190080
0.039803289 -0.1912498 -0.017172404 4278190080
0.04040901 -0.1912121 -0.016590457 4278190080
0.042658091 -0.18956594 -0.016699715 4278190080
0.039806258 -0.19166459 -0.016560476 4278190080
0.044650085 -0.18567587 -0.019810297 4278190080
0.044434551 -0.18835092 -0.016780715 4278190080
0.045497522 -0.18564336 -0.019321766 4278190080
0.045497537 -0.18564335 -0.019321714 4278190080
0.04549465 -0.1851452 -0.019845888 4278190080
0.045494664 -0.18514514 -0.019845892 4278190080
0.045510344 -0.18764691 -0.016827792 4278190080
0.045510359 -0.18764687 -0.016827796 4278190080
0.036953844 -0.19353193 -0.016435608 4278190080
0.042668384 -0.19108485 -0.014635266 4278190080
0.045514517 -0.18830082 -0.016018748 4278190080
0.045514531 -0.1883008 -0.0160187 4278190080
0.045065779 -0.18300037 -0.022840522 4278190080
0.045065884 -0.18300036 -0.022840528 4278190080
0.034087598 -0.1936387 -0.019282792 4278190080
0.045480855 -0.18297976 -0.02252575 4278190080
0.04548084 -0.18297976 -0.022525806 4278190080
0.045480855 -0.18297975 -0.022525834 4278190080
0.04548084 -0.18297975 -0.022525886 4278190080
0.036251906 -0.19407362 -0.016399775 4278190080
0.036957297 -0.19403048 -0.015734483 4278190080
0.04547916 -0.18272685 -0.022858802 4278190080
0.045479175 -0.1827268 -0.022858806 4278190080
0.034091737 -0.19420466 -0.018420134 4278190080
0.04267301 -0.19175975 -0.013700767 4278190080
0.04267301 -0.19175981 -0.013700749 4278190080
0.037773747 -0.18872094 -0.022462476 4278190080
0.039776128 -0.18716404 -0.022565421 4278190080
0.03692456 -0.18936822 -0.022419624 4278190080
0.041233294 -0.1858611 -0.022650898 4278190080
0.042616837 -0.18312374 -0.024725614 4278190080
0.042616837 -0.18312375 -0.024725541 4278190080
0.039786048 -0.18859731 -0.020555198 4278190080
0.042627085 -0.18471707 -0.022726301 4278190080
0.042611502 -0.18226056 -0.025741585 4278190080
0.03407291 -0.19158351 -0.022307768 4278190080
0.0341065 -0.19158129 -0.02227338 4278190080
0.034073073 -0.19160473 -0.022271821 4278190080
0.042634215 -0.18577357 -0.021299746 4278190080
0.031505473 -0.19176458 -0.025116626 4278190080
0.039790895 -0.18929572 -0.019570317 4278190080
0.031206088 -0.19178288 -0.025398791 4278190080
0.040807869 -0.18853663 -0.019620636 4278190080
0.031207507 -0.19197616 -0.025102556 4278190080
0.042600196 -0.18045931 -0.027916286 4278190080
0.03693904 -0.19138414 -0.019431718 4278190080
0.036922086 -0.19139749 -0.019430835 4278190080
0.036939129 -0.19139634 -0.019413017 4278190080
0.034027375 -0.18465076 -0.031291857 4278190080
0.03528804 -0.18355492 -0.031363856 4278190080
0.035288114 -0.1835549 -0.03136386 4278190080
0.034037441 -0.18629792 -0.029385805 4278190080
0.03402143 -0.18362106 -0.032376479 4278190080
0.03402143 -0.18362106 -0.03237655 4278190080
0.036886044 -0.18346564 -0.029992636 4278190080
0.036886044 -0.18346563 -0.02999272 4278190080
0.035188794 -0.18622968 -0.028334659 4278190080
0.036894195 -0.18477164 -0.02843054 4278190080
0.036878217 -0.1821584 -0.031455562 4278190080
0.03192012 -0.18641454 -0.031175736 4278190080
0.034043431 -0.18729576 -0.028264862 4278190080
0.031172695 -0.18645626 -0.031816598 4278190080
0.038530055 -0.18337011 -0.028522689 4278190080
0.038530145 -0.1833701 -0.028522691 4278190080
0.036902856 -0.18612663 -0.026746709 4278190080
0.031176468 -0.18711311 -0.031130023 4278190080
0.034011353 -0.1820201 -0.034317967 4278190080
0.034011353 -0.18202016 -0.034318037 4278190080
0.03147988 -0.18374105 -0.034203194 4278190080
0.031479791 -0.18374106 -0.03420319 4278190080
0.031479955 -0.18374105 -0.034203269 4278190080
0.031479865 -0.18374106 -0.034203265 4278190080
0.036869697 -0.18079537 -0.033089802 4278190080
0.031159338 -0.18404105 -0.034183558 4278190080
0.031159338 -0.18404113 -0.034183629 4278190080
0.031157559 -0.18376212 -0.034528784 4278190080
0.031157559 -0.1837621 -0.034528881 4278190080
0.035484243 -0.18087991 -0.034393378 4278190080
0.035484318 -0.18087992 -0.034393452 4278190080
0.038588773 -0.18069543 -0.031551763 4278190080
0.039744981 -0.18225756 -0.028595585 4278190080
0.03186696 -0.18908919 -0.028146684 4278190080
0.039751437 -0.18329474 -0.027360057 4278190080
0.039751437 -0.18329476 -0.027359981 4278190080
0.036909841 -0.18725507 -0.025413575 4278190080
0.031188883 -0.18912959 -0.028768938 4278190080
0.03405403 -0.18896338 -0.026211541 4278190080
0.038306624 -0.18604515 -0.025493085 4278190080
0.039734852 -0.18062922 -0.030533247 4278190080
0.031192249 -0.18964814 -0.028109862 4278190080
0.034998234 -0.18890464 -0.025305156 4278190080
0.034004096 -0.18097034 -0.035788007 4278190080
0.036862563 -0.17967419 -0.034472566 4278190080
0.036862563 -0.17967427 -0.034472637 4278190080
0.03976072 -0.18477689 -0.025576398 4278190080
0.039729081 -0.17967466 -0.031618722 4278190080
0.034058891 -0.18970452 -0.025252543 4278190080
0.028309284 -0.18658811 -0.033820707 4278190080
0.028308153 -0.18639416 -0.034028508 4278190080
0.028308153 -0.18639421 -0.034028582 4278190080
0.028589744 -0.18927409 -0.030987736 4278190080
0.028067904 -0.18660079 -0.034014929 4278190080
0.028067971 -0.18660079 -0.034015004 4278190080
0.028324166 -0.18928723 -0.031188454 4278190080
0.039768409 -0.1859526 -0.024063569 4278190080
0.028325275 -0.18946323 -0.030975163 4278190080
0.032378718 -0.1810644 -0.037235066 4278190080
0.031144954 -0.18206197 -0.037169255 4278190080
0.041743096 -0.18051083 -0.028710313 4278190080
0.041573919 -0.18318577 -0.025680881 4278190080
0.041574024 -0.18318576 -0.025680883 4278190080
0.036920462 -0.18877195 -0.02324827 4278190080
0.033995934 -0.17962906 -0.03732926 4278190080
0.038823616 -0.17802036 -0.034581408 4278190080
0.03882369 -0.17802036 -0.034581482 4278190080
0.039718248 -0.17796418 -0.033713933 4278190080
