# .PCD v0.7 - Point Cloud Data file format
VERSION 0.7
FIELDS x y z rgba label
SIZE 4 4 4 4 4
TYPE F F F U U
COUNT 1 1 1 1 1
WIDTH 152
HEIGHT 1
VIEWPOINT 0 0 0 1 0 0 0
POINTS 152
DATA ascii
-0.0085713714 -0.094285674 0.19314158 4278190080 23505
-0.0085713714 -0.096288182 0.19428577 4278190080 23504
-0.0085713714 -0.097142823 0.19481331 4278190080 23503
-0.0085713714 -0.088571385 0.18931374 4278190080 23508
-0.011428514 -0.094285674 0.19298823 4278190080 23493
-0.011428514 -0.091793284 0.19142863 4278190080 23494
-0.011428514 -0.091428533 0.19115435 4278190080 23495
-0.0050240899 -0.099999949 0.19714291 4278190080 26821
-0.0050242301 -0.099999964 0.19714291 4278190080 23527
-0.0057142288 -0.099999949 0.19703403 4278190080 26818
-0.0057142288 -0.099999964 0.19703405 4278190080 23515
-0.011428514 -0.096150771 0.19428577 4278190080 23492
-0.0085713714 -0.087099969 0.18857148 4278190080 23509
-0.0057142288 -0.10015815 0.19714291 4278190080 26817
-0.0057142288 -0.085714251 0.18799461 4278190080 23523
-0.0028570858 -0.085494369 0.18857148 4278190080 23539
-0.0032829652 -0.085714251 0.18857148 4278190080 23537
-0.0057142288 -0.097142823 0.19581462 4278190080 23516
-0.0057142288 -0.086764239 0.18857148 4278190080 23522
-0.0085713714 -0.091990843 0.19142863 4278190080 23506
-0.0085713714 -0.091428533 0.19101855 4278190080 23507
-0.0057142288 -0.088571385 0.1895351 4278190080 23521
-0.0028570858 -0.085714251 0.18866676 4278190080 23538
5.7220458e-08 -0.085714251 0.18988812 4278190080 23552
3.8146972e-08 -0.085714251 0.18988809 4278190080 22519
-0.0057142288 -0.091757782 0.19142863 4278190080 23519
-0.0057142288 -0.091428533 0.19121195 4278190080 23520
0.0079010287 -0.085714251 0.19142863 4278190080 22548
0.0057143238 -0.087029189 0.19142863 4278190080 22535
0.002857181 -0.085714251 0.19015105 4278190080 22518
-0.0028570858 -0.088571385 0.19013824 4278190080 23536
0.0057143238 -0.085714251 0.19087385 4278190080 22536
-0.0049180523 -0.091428533 0.19142863 4278190080 23533
-0.0057142288 -0.094285674 0.19343387 4278190080 23518
0.011428609 -0.089739941 0.19428577 4278190080 22559
-0.0057142288 -0.095292322 0.19428577 4278190080 23517
0.002857181 -0.088571385 0.1917266 4278190080 22516
0.0057143238 -0.088571385 0.19209878 4278190080 22534
0.00078673725 -0.088571385 0.19142863 4278190080 22514
-0.0028570858 -0.091428533 0.19197574 4278190080 23534
0.002857181 -0.08798331 0.19142863 4278190080 22517
3.8146972e-08 -0.088810362 0.19142863 4278190080 22513
5.7220458e-08 -0.088810332 0.19142863 4278190080 23550
5.7220458e-08 -0.088571385 0.19130965 4278190080 23551
3.8146972e-08 -0.088571385 0.19130965 4278190080 22515
0.0085714664 -0.088571385 0.19295762 4278190080 22547
0.011428609 -0.091428533 0.19492741 4278190080 22558
-0.0028570858 -0.09055277 0.19142863 4278190080 23535
5.7220458e-08 -0.091428533 0.19268823 4278190080 23549
3.8146972e-08 -0.091428533 0.19268821 4278190080 22512
-0.0016560418 -0.094285674 0.19428577 4278190080 23546
0.0057143238 -0.091428533 0.19367854 4278190080 22533
0.002857181 -0.091428533 0.19311382 4278190080 22511
0.0085054506 -0.091428533 0.19428577 4278190080 22544
0.0085714664 -0.091428533 0.19429974 4278190080 22545
0.0085714664 -0.09139628 0.19428577 4278190080 22546
-0.0028570858 -0.094776794 0.19428577 4278190080 23531
-0.0028570858 -0.094285674 0.19393948 4278190080 23532
0.002857181 -0.093303233 0.19428577 4278190080 22510
5.7220458e-08 -0.094285674 0.19466126 4278190080 23547
3.8146972e-08 -0.094285674 0.19466124 4278190080 22507
0.0057143238 -0.092550173 0.19428577 4278190080 22532
-0.0028570858 -0.097142823 0.19582275 4278190080 23529
3.8146972e-08 -0.093654938 0.19428577 4278190080 22509
5.7220458e-08 -0.093654916 0.19428577 4278190080 23548
-0.0028570858 -0.10285708 0.19980986 4278190080 26820
-0.0028570858 -0.099327601 0.19714291 4278190080 23528
-0.0028570858 -0.1031094 0.20000005 4278190080 26181
-0.0028570858 -0.10310949 0.20000006 4278190080 26819
5.7220458e-08 -0.10662843 0.20285718 4278190080 26191
3.8146972e-08 -0.10662844 0.20285718 4278190080 25361
5.7220458e-08 -0.098534487 0.19714291 4278190080 23543
3.8146972e-08 -0.098534524 0.19714291 4278190080 22501
0.0057143238 -0.094285674 0.19526242 4278190080 22531
5.7220458e-08 -0.097142823 0.19636714 4278190080 23544
3.8146972e-08 -0.097142823 0.19636711 4278190080 22504
0.002857181 -0.094285674 0.19487582 4278190080 22508
5.7220458e-08 -0.10571422 0.20218128 4278190080 26192
3.8146972e-08 -0.10571422 0.20218126 4278190080 25364
-0.0028570858 -0.099999964 0.19755425 4278190080 23530
-0.0028570858 -0.099999949 0.19755419 4278190080 26822
0.0085714664 -0.10021615 0.20000006 4278190080 25768
0.0085714664 -0.10021605 0.20000005 4278190080 25396
0.0085714664 -0.099999964 0.19980639 4278190080 22540
0.0085714664 -0.099999949 0.19980633 4278190080 25769
0.009454146 -0.099999964 0.20000005 4278190080 22613
0.0094544562 -0.099999949 0.20000005 4278190080 25411
0.0094545372 -0.099999964 0.20000006 4278190080 22553
0.0094548427 -0.099999949 0.20000006 4278190080 25770
0.0085714664 -0.10285708 0.20193277 4278190080 25395
0.0057143238 -0.10079633 0.20000006 4278190080 25766
0.0057143238 -0.10079624 0.20000005 4278190080 25382
0.011428609 -0.099999964 0.2003573 4278190080 22611
0.011428609 -0.099999949 0.20035726 4278190080 25410
0.011428609 -0.099500865 0.20000006 4278190080 22554
0.011428609 -0.09950076 0.20000005 4278190080 22612
0.0057143238 -0.099999964 0.19926503 4278190080 22529
0.0057143238 -0.099999949 0.19926497 4278190080 25767
0.0057143238 -0.10285708 0.20149525 4278190080 25381
0.0085714664 -0.10414292 0.20285718 4278190080 25394
0.011428609 -0.10285708 0.20241208 4278190080 25409
0.011428609 -0.10346966 0.20285718 4278190080 25408
0.0085714664 -0.097142823 0.19755207 4278190080 22541
0.0057143238 -0.1047648 0.20285718 4278190080 25380
0.011428609 -0.097142823 0.19805498 4278190080 22555
0.0085714664 -0.10571422 0.2040284 4278190080 25393
0.013629032 -0.10285708 0.20285718 4278190080 25423
0.002857181 -0.10155331 0.20000006 4278190080 25763
0.002857181 -0.1015532 0.20000005 4278190080 25368
0.014285753 -0.099999949 0.20084761 4278190080 25426
0.014285753 -0.099999964 0.20084766 4278190080 22614
0.0085714664 -0.096457459 0.19714291 4278190080 22542
0.002857181 -0.10285708 0.20086898 4278190080 25366
0.0057143238 -0.097142823 0.19720216 4278190080 22528
0.0057143238 -0.097056732 0.19714291 4278190080 22530
0.0057143238 -0.10571422 0.20350453 4278190080 25379
0.002857181 -0.099999964 0.19856755 4278190080 22505
0.002857181 -0.099999949 0.19856749 4278190080 25764
0.014285753 -0.098755792 0.20000006 4278190080 22566
0.014285753 -0.098755695 0.20000005 4278190080 22615
0.0052954708 -0.097142823 0.19714291 4278190080 22527
0.014285753 -0.10267983 0.20285718 4278190080 25425
0.014285753 -0.10285708 0.20298609 4278190080 25424
0.011428609 -0.10571422 0.20454226 4278190080 25407
0.011428609 -0.095646136 0.19714291 4278190080 22556
0.014285753 -0.097142823 0.19868782 4278190080 22567
0.0031759501 -0.10571422 0.20285718 4278190080 25378
0.002857181 -0.097710356 0.19714291 4278190080 22502
0.002857181 -0.10571422 0.20277908 4278190080 25363
0.002857181 -0.10581811 0.20285718 4278190080 25362
0.002857181 -0.097142823 0.19674955 4278190080 22503
0.011428609 -0.10711963 0.20571433 4278190080 25406
0.0085714664 -0.094285674 0.19585277 4278190080 22543
0.0085714664 -0.10783859 0.20571433 4278190080 25392
0.014285753 -0.10571422 0.20510969 4278190080 25422
0.011428609 -0.094285674 0.1963812 4278190080 22557
0.00014786988 -0.10285708 0.20000006 4278190080 25761
0.00014766694 -0.10285708 0.20000005 4278190080 25367
0.017142896 -0.099999949 0.20128244 4278190080 25443
0.017142896 -0.099999964 0.2012825 4278190080 22616
5.7220458e-08 -0.10285708 0.19994336 4278190080 26824
3.8146972e-08 -0.10285708 0.19994336 4278190080 25762
5.7220458e-08 -0.10292593 0.20000005 4278190080 26193
5.7220458e-08 -0.10292603 0.20000006 4278190080 26823
3.8146972e-08 -0.10292594 0.20000005 4278190080 25365
3.8146972e-08 -0.10292604 0.20000006 4278190080 25760
0.017142896 -0.10196784 0.20285718 4278190080 25442
5.7220458e-08 -0.099999964 0.19790857 4278190080 23545
5.7220458e-08 -0.099999949 0.19790852 4278190080 26825
3.8146972e-08 -0.099999964 0.19790857 4278190080 22506
3.8146972e-08 -0.099999949 0.19790851 4278190080 25765
0.014285753 -0.094927229 0.19714291 4278190080 22568
