# .PCD v0.7 - Point Cloud Data file format
VERSION 0.7
FIELDS x y z rgb
SIZE 4 4 4 4
TYPE F F F U
COUNT 1 1 1 1
WIDTH 139
HEIGHT 1
VIEWPOINT 0 0 0 1 0 0 0
POINTS 139
DATA ascii
0.086961299 -0.12966116 -0.022259399 4278190080
0.087489046 -0.12441847 -0.0210917 4278190080
0.087564819 -0.12387709 -0.020976141 4278190080
0.087564826 -0.12387706 -0.020976137 4278190080
0.085593 -0.12916777 -0.024833597 4278190080
0.083772756 -0.13160209 -0.028022723 4278190080
0.081631452 -0.13199511 -0.030632779 4278190080
0.086158909 -0.12003409 -0.022715721 4278190080
0.086379685 -0.12067986 -0.022336699 4278190080
0.087135129 -0.12679949 -0.021595027 4278190080
0.085514329 -0.13199475 -0.025556406 4278190080
0.08553876 -0.13200101 -0.025519215 4278190080
0.087302536 -0.12381984 -0.02134099 4278190080
0.087302551 -0.12381987 -0.021340968 4278190080
0.085536964 -0.1320757 -0.0255372 4278190080
0.08496803 -0.11721637 -0.024758862 4278190080
0.08603999 -0.12060051 -0.022827256 4278190080
0.083800964 -0.12585278 -0.026987977 4278190080
0.084012873 -0.12308399 -0.025979614 4278190080
0.084012896 -0.12308396 -0.02597961 4278190080
0.08400768 -0.12590556 -0.026673952 4278190080
0.08403153 -0.12674817 -0.026887307 4278190080
0.084476165 -0.12015357 -0.025366699 4278190080
0.084008083 -0.12872583 -0.027369292 4278190080
0.083640598 -0.11671327 -0.02734033 4278190080
0.084603921 -0.12886773 -0.026499454 4278190080
0.085741296 -0.12349183 -0.023469426 4278190080
0.085741319 -0.1234918 -0.023469426 4278190080
0.081398286 -0.13120933 -0.030894442 4278190080
0.085614696 -0.12634225 -0.024142183 4278190080
0.081732646 -0.13126828 -0.030477516 4278190080
0.082921535 -0.12275806 -0.027799988 4278190080
0.08292155 -0.1227581 -0.027799929 4278190080
0.08089792 -0.11572793 -0.032487649 4278190080
0.080897935 -0.11572793 -0.032487635 4278190080
0.082973771 -0.11969203 -0.027917068 4278190080
0.079721116 -0.11464559 -0.034961898 4278190080
0.082245976 -0.11622613 -0.029909847 4278190080
0.081648245 -0.11925258 -0.03027817 4278190080
0.082257606 -0.12550285 -0.029180296 4278190080
0.082479022 -0.12262992 -0.028524391 4278190080
0.082479045 -0.12262989 -0.028524388 4278190080
0.079813503 -0.13090573 -0.032953806 4278190080
0.082617208 -0.12191088 -0.028379794 4278190080
0.07761988 -0.13134393 -0.035562631 4278190080
0.077619895 -0.13134401 -0.035562634 4278190080
0.082043737 -0.12837403 -0.029837549 4278190080
0.080514014 -0.12509862 -0.031687789 4278190080
0.080901466 -0.12218624 -0.031061394 4278190080
0.080901481 -0.12218621 -0.03106139 4278190080
0.080254748 -0.12736022 -0.032184042 4278190080
0.080196857 -0.12799431 -0.032326683 4278190080
0.077333584 -0.13047744 -0.036015317 4278190080
0.080460429 -0.12805368 -0.03195364 4278190080
0.07778208 -0.13056986 -0.03541014 4278190080
0.077782109 -0.13056986 -0.035410125 4278190080
0.080621079 -0.11671547 -0.032665659 4278190080
0.080621071 -0.11671542 -0.032665662 4278190080
0.079570428 -0.11522485 -0.035069082 4278190080
0.080053635 -0.11541198 -0.034115631 4278190080
0.081533708 -0.11921568 -0.030478513 4278190080
0.081571318 -0.11905586 -0.030447999 4278190080
0.076196447 -0.12711397 -0.037917502 4278190080
0.076597229 -0.12721254 -0.037321664 4278190080
0.076459914 -0.12787513 -0.037452552 4278190080
0.079057418 -0.12369036 -0.034015596 4278190080
0.079057425 -0.12369042 -0.034015592 4278190080
0.078894556 -0.12466488 -0.03421735 4278190080
0.07889457 -0.12466488 -0.034217332 4278190080
0.079299137 -0.12174843 -0.033594001 4278190080
0.079299144 -0.1217484 -0.033593997 4278190080
0.079299152 -0.12174843 -0.033593986 4278190080
0.079299159 -0.1217484 -0.033593979 4278190080
0.079445593 -0.12481774 -0.033338472 4278190080
0.078427017 -0.1275963 -0.034829512 4278190080
0.078427047 -0.1275963 -0.034829501 4278190080
0.080076814 -0.11874334 -0.033036966 4278190080
0.080076844 -0.11874333 -0.033036955 4278190080
0.074136063 -0.12979911 -0.040396877 4278190080
0.075948365 -0.13018703 -0.037901592 4278190080
0.07891418 -0.11307624 -0.037403513 4278190080
0.07839451 -0.11468576 -0.037677482 4278190080
0.078028396 -0.12092613 -0.036110148 4278190080
0.077943303 -0.12125208 -0.036170397 4278190080
0.077943325 -0.12125205 -0.036170393 4278190080
0.078769483 -0.11823547 -0.035621982 4278190080
0.078205764 -0.12134714 -0.035675082 4278190080
0.078205787 -0.12134719 -0.035675 4278190080
0.077201553 -0.12424862 -0.036733814 4278190080
0.074858673 -0.12680711 -0.039830059 4278190080
0.073894575 -0.11975854 -0.043902971 4278190080
0.073894553 -0.11975857 -0.043902975 4278190080
0.073022909 -0.11944912 -0.045526098 4278190080
0.073022872 -0.11944906 -0.045526233 4278190080
0.074841395 -0.11671329 -0.04337601 4278190080
0.073569879 -0.12064245 -0.044044144 4278190080
0.07269454 -0.11870509 -0.046378877 4278190080
0.072502196 -0.11927087 -0.046472896 4278190080
0.072502144 -0.11927091 -0.046472896 4278190080
0.073579915 -0.11619452 -0.045969199 4278190080
0.075248815 -0.1202553 -0.041326281 4278190080
0.075248852 -0.12025526 -0.041326284 4278190080
0.075390473 -0.11504988 -0.0430957 4278190080
0.07615193 -0.1172204 -0.040791545 4278190080
0.076249003 -0.11689686 -0.040734719 4278190080
0.072710119 -0.12286027 -0.044387709 4278190080
0.074425966 -0.12247624 -0.041679338 4278190080
0.076435462 -0.11732332 -0.040255785 4278190080
0.074582666 -0.11347584 -0.045535956 4278190080
0.071840733 -0.11688353 -0.048747234 4278190080
0.075843163 -0.11365497 -0.042858802 4278190080
0.071424037 -0.12234734 -0.046976525 4278190080
0.0740695 -0.12335578 -0.041811924 4278190080
0.072322831 -0.11567471 -0.048563167 4278190080
0.074711204 -0.11310543 -0.045475017 4278190080
0.071135655 -0.11877706 -0.049047407 4278190080
0.071135618 -0.11877709 -0.049047407 4278190080
0.07427261 -0.11289006 -0.046497099 4278190080
0.07664685 -0.12074162 -0.038757373 4278190080
0.076646872 -0.1207416 -0.038757369 4278190080
0.074965753 -0.1236529 -0.040215485 4278190080
0.077093542 -0.11417637 -0.040263645 4278190080
0.077138878 -0.11891245 -0.038422719 4278190080
0.077510014 -0.11771622 -0.038215529 4278190080
0.073582172 -0.11255521 -0.048091743 4278190080
0.070099987 -0.12184344 -0.049558587 4278190080
0.070898175 -0.12442798 -0.047365174 4278190080
0.075570591 -0.12381762 -0.03926133 4278190080
0.073798865 -0.112031 -0.048013724 4278190080
0.072000936 -0.1258491 -0.044956923 4278190080
0.069987565 -0.12230082 -0.049644776 4278190080
0.071421079 -0.12564091 -0.046044704 4278190080
0.075350292 -0.1246772 -0.039421171 4278190080
0.073431775 -0.12632763 -0.042393841 4278190080
0.069717318 -0.12168646 -0.050343905 4278190080
0.0710302 -0.11529485 -0.051183235 4278190080
0.071030192 -0.11529486 -0.051183313 4278190080
0.071097873 -0.11514726 -0.051162846 4278190080
0.071097873 -0.11514725 -0.051162921 4278190080
