# .PCD v0.7 - Point Cloud Data file format
VERSION 0.7
FIELDS x y z rgb
SIZE 4 4 4 4
TYPE F F F U
COUNT 1 1 1 1
WIDTH 162
HEIGHT 1
VIEWPOINT 0 0 0 1 0 0 0
POINTS 162
DATA ascii
0.059505049 -0.17273802 0.014002599 4278190080
0.061673786 -0.17455094 0.013983037 4278190080
0.062316474 -0.17487124 0.013966748 4278190080
0.065428413 -0.17582349 0.019586802 4278190080
0.062447928 -0.17521262 0.016840706 4278190080
0.068477236 -0.1742564 0.022728618 4278190080
0.06844379 -0.17470649 0.022247609 4278190080
0.068607464 -0.17133237 0.024054825 4278190080
0.06868165 -0.16977648 0.02486133 4278190080
0.065285042 -0.17607236 0.016741989 4278190080
0.068272315 -0.17634778 0.019471526 4278190080
0.068744928 -0.16840129 0.025526965 4278190080
0.065663375 -0.17122237 0.025080523 4278190080
0.065796487 -0.17122681 0.025045125 4278190080
0.065798759 -0.17118387 0.025071964 4278190080
0.065928213 -0.16830131 0.026401596 4278190080
0.065629438 -0.1741868 0.02297543 4278190080
0.062587023 -0.17517558 0.019695975 4278190080
0.065589555 -0.174694 0.022388151 4278190080
0.056823306 -0.17143786 0.017104562 4278190080
0.056823313 -0.17143787 0.017104419 4278190080
0.056893524 -0.17144774 0.016933281 4278190080
0.056816839 -0.17135622 0.016932648 4278190080
0.056816828 -0.17135614 0.016932646 4278190080
0.05962532 -0.17363347 0.016903909 4278190080
0.066047773 -0.16570066 0.027658369 4278190080
0.06604778 -0.16570058 0.027658381 4278190080
0.060607594 -0.17438586 0.016891725 4278190080
0.066066541 -0.16536938 0.027891472 4278190080
0.061808821 -0.17413086 0.022547876 4278190080
0.062757187 -0.17414109 0.022727935 4278190080
0.0627423 -0.17433676 0.022511672 4278190080
0.059756547 -0.17398614 0.019778417 4278190080
0.0601249 -0.17423393 0.019772187 4278190080
0.06335026 -0.16477877 0.030611115 4278190080
0.060118645 -0.17107028 0.025897071 4278190080
0.060081877 -0.17157653 0.025373664 4278190080
0.057072163 -0.172414 0.022699071 4278190080
0.057072178 -0.17241402 0.022699071 4278190080
0.054135159 -0.16964971 0.019846661 4278190080
0.063139156 -0.16838345 0.027931962 4278190080
0.063139156 -0.16838335 0.027931973 4278190080
0.063152455 -0.16816135 0.028103057 4278190080
0.052826151 -0.16836061 0.019849043 4278190080
0.055581562 -0.17127712 0.019853847 4278190080
0.063438058 -0.16817679 0.027907198 4278190080
0.063438192 -0.16817679 0.027907178 4278190080
0.059905924 -0.17343968 0.022608548 4278190080
0.062970437 -0.17113598 0.025730889 4278190080
0.062660277 -0.16516384 0.030663861 4278190080
0.062934682 -0.17165977 0.025236614 4278190080
0.051342368 -0.16659448 0.019836996 4278190080
0.056937695 -0.17222197 0.019832484 4278190080
0.056937709 -0.17222202 0.019832486 4278190080
0.060668621 -0.16306986 0.03352502 4278190080
0.063317791 -0.16520303 0.030138353 4278190080
0.056567602 -0.17101727 0.025520399 4278190080
0.057248048 -0.17102297 0.025682889 4278190080
0.057248063 -0.17102297 0.025682909 4278190080
0.054254953 -0.17056857 0.022749126 4278190080
0.057234589 -0.171221 0.025497269 4278190080
0.057234604 -0.17122102 0.025497269 4278190080
0.054763597 -0.17111763 0.02275053 4278190080
0.060471058 -0.16600347 0.030812731 4278190080
0.060321406 -0.1680754 0.028688066 4278190080
0.060275421 -0.1688417 0.028095756 4278190080
0.060275421 -0.16884176 0.028095745 4278190080
0.060526136 -0.1650786 0.031518988 4278190080
0.05145888 -0.1676759 0.022747487 4278190080
0.054406241 -0.16992737 0.025574565 4278190080
0.051887117 -0.16819839 0.022751581 4278190080
0.057472765 -0.16800664 0.028917367 4278190080
0.05747278 -0.16800664 0.028917363 4278190080
0.057420332 -0.16887294 0.028238457 4278190080
0.057420347 -0.16887295 0.028238453 4278190080
0.057420332 -0.16887301 0.028238444 4278190080
0.057420347 -0.16887301 0.028238442 4278190080
0.057890818 -0.16200463 0.034752671 4278190080
0.057890832 -0.16200463 0.034752674 4278190080
0.047341689 -0.16196403 0.031266622 4278190080
0.048736133 -0.16484985 0.031337239 4278190080
0.049181502 -0.16195798 0.03214065 4278190080
0.049081888 -0.16485211 0.031432673 4278190080
0.04907383 -0.16498226 0.031326942 4278190080
0.046306897 -0.16064525 0.031254005 4278190080
0.048335031 -0.16498184 0.028499534 4278190080
0.048335046 -0.16498184 0.028499519 4278190080
0.046582293 -0.16208793 0.02844624 4278190080
0.046582308 -0.16208795 0.028446225 4278190080
0.048922528 -0.16562404 0.028501544 4278190080
0.048922531 -0.16562402 0.028501527 4278190080
0.046153538 -0.16138911 0.028433643 4278190080
0.046153538 -0.1613891 0.028433628 4278190080
0.049318373 -0.15972103 0.03392433 4278190080
0.051957194 -0.16489482 0.031741902 4278190080
0.05191718 -0.16553265 0.031212956 4278190080
0.046478 -0.15902232 0.034030996 4278190080
0.052125636 -0.16193345 0.033839934 4278190080
0.046483751 -0.15894499 0.034113742 4278190080
0.046483751 -0.15894495 0.03411366 4278190080
0.05212982 -0.16185194 0.033888366 4278190080
0.05221086 -0.16193278 0.033888269 4278190080
0.045962855 -0.15893747 0.034052365 4278190080
0.0459623 -0.15893751 0.034052394 4278190080
0.049354773 -0.15899192 0.034336135 4278190080
0.049354773 -0.15899186 0.034336064 4278190080
0.044429839 -0.159044 0.031269379 4278190080
0.044429902 -0.15904394 0.031269375 4278190080
0.04447592 -0.15918608 0.028410034 4278190080
0.044475876 -0.15918608 0.028410051 4278190080
0.044475939 -0.15918602 0.028410047 4278190080
0.044475954 -0.15918602 0.028410029 4278190080
0.048806328 -0.16512127 0.025867384 4278190080
0.047183875 -0.16224255 0.025560031 4278190080
0.048795857 -0.16504565 0.025615893 4278190080
0.048848316 -0.16513446 0.025617594 4278190080
0.051363572 -0.1679045 0.028491113 4278190080
0.051363677 -0.1679045 0.028491125 4278190080
0.052240953 -0.159024 0.034865007 4278190080
0.052240957 -0.15902394 0.034864962 4278190080
0.051734909 -0.16790876 0.028556572 4278190080
0.051728535 -0.16802454 0.028478887 4278190080
0.051728535 -0.16802457 0.028478872 4278190080
0.043646608 -0.15787865 0.034115694 4278190080
0.046031892 -0.16056167 0.025535699 4278190080
0.054824956 -0.1649449 0.031898785 4278190080
0.054968696 -0.16262409 0.033785325 4278190080
0.054764293 -0.16589676 0.031089775 4278190080
0.055018391 -0.16195913 0.034501545 4278190080
0.04950761 -0.1571998 0.036656961 4278190080
0.046655223 -0.15709627 0.036793008 4278190080
0.045257457 -0.15934473 0.025515137 4278190080
0.045257475 -0.15934467 0.025515132 4278190080
0.043973282 -0.15617926 0.031153403 4278190080
0.043585662 -0.15612765 0.032040682 4278190080
0.044494648 -0.15633206 0.028271083 4278190080
0.044494662 -0.15633206 0.028271068 4278190080
0.051358029 -0.16804542 0.025634279 4278190080
0.052357778 -0.15741251 0.036526304 4278190080
0.051586423 -0.16821115 0.025631001 4278190080
0.054606527 -0.16795507 0.028791238 4278190080
0.043802638 -0.15700255 0.03692954 4278190080
0.045971002 -0.15944587 0.023757963 4278190080
0.045971006 -0.15944581 0.023757998 4278190080
0.055133596 -0.15904978 0.035524372 4278190080
0.0551336 -0.15904972 0.035524346 4278190080
0.0545731 -0.16851483 0.028361931 4278190080
0.0545731 -0.16851488 0.02836192 4278190080
0.042347234 -0.15600155 0.034089163 4278190080
0.048687235 -0.16357312 0.022686109 4278190080
0.047952302 -0.16240092 0.022665758 4278190080
0.051545203 -0.16809407 0.024725175 4278190080
0.049641274 -0.16529338 0.022722136 4278190080
0.04507095 -0.15648609 0.025386095 4278190080
0.057683792 -0.16500369 0.031875409 4278190080
0.057683807 -0.16500369 0.031875417 4278190080
0.046450969 -0.15951268 0.022600308 4278190080
0.046451002 -0.15951264 0.022600302 4278190080
0.057814978 -0.16302924 0.033664171 4278190080
0.057814993 -0.16302924 0.033664167 4278190080
0.057614751 -0.16609511 0.030958412 4278190080
0.057614766 -0.16609511 0.030958408 4278190080
