# .PCD v0.7 - Point Cloud Data file format
VERSION 0.7
FIELDS x y z rgb
SIZE 4 4 4 4
TYPE F F F U
COUNT 1 1 1 1
WIDTH 162
HEIGHT 1
VIEWPOINT 0 0 0 1 0 0 0
POINTS 162
DATA ascii
0.25331363 0.25244364 0.042371005 4278190080
0.25296468 0.25322843 0.045064278 4278190080
0.25277859 0.25329113 0.045755185 4278190080
0.25641227 0.25027189 0.050211895 4278190080
0.25522727 0.25209278 0.046736334 4278190080
0.25715363 0.24647458 0.052791774 4278190080
0.2569218 0.24708807 0.05286254 4278190080
0.25720212 0.24341281 0.051816903 4278190080
0.25730965 0.24173182 0.051327042 4278190080
0.25419435 0.25193581 0.049512543 4278190080
0.25524822 0.2498503 0.052827947 4278190080
0.25736642 0.24027032 0.050880559 4278190080
0.25930849 0.2437468 0.049540024 4278190080
0.25922218 0.24372581 0.049645409 4278190080
0.25922889 0.24367705 0.049633201 4278190080
0.25929469 0.24064729 0.048678536 4278190080
0.25858381 0.24719876 0.050424032 4278190080
0.25752801 0.25059593 0.04753682 4278190080
0.25828594 0.24791336 0.050490834 4278190080
0.25662559 0.25069934 0.040250801 4278190080
0.25662547 0.25069943 0.040250771 4278190080
0.25645575 0.25077039 0.04027253 4278190080
0.25645763 0.25072122 0.040163759 4278190080
0.25645763 0.25072116 0.040163714 4278190080
0.25597891 0.25168231 0.043616679 4278190080
0.25940043 0.23788445 0.047833595 4278190080
0.25940043 0.23788437 0.047833562 4278190080
0.25579467 0.25198394 0.044802565 4278190080
0.25947309 0.23749501 0.047746874 4278190080
0.25988448 0.24857861 0.04707915 4278190080
0.25962186 0.2481963 0.047925815 4278190080
0.25951529 0.24846669 0.047954526 4278190080
0.25843203 0.25049287 0.044603221 4278190080
0.25834984 0.25057909 0.045030959 4278190080
0.26272428 0.23652478 0.045845896 4278190080
0.26236689 0.24497598 0.045004513 4278190080
0.26212043 0.245657 0.045089163 4278190080
0.26150161 0.2486203 0.042305093 4278190080
0.26150161 0.24862033 0.042305116 4278190080
0.25947472 0.24874264 0.037801467 4278190080
0.26181829 0.24083567 0.046748661 4278190080
0.26181826 0.24083558 0.046748612 4278190080
0.261879 0.24056697 0.046694759 4278190080
0.25961104 0.24811642 0.036079574 4278190080
0.2594015 0.24959351 0.039804395 4278190080
0.26159614 0.24058641 0.046894271 4278190080
0.26159605 0.24058639 0.046894379 4278190080
0.2605336 0.24859422 0.045160506 4278190080
0.26100066 0.2442072 0.047393534 4278190080
0.26320201 0.23702812 0.045464329 4278190080
0.26078397 0.24488753 0.047494657 4278190080
0.25964931 0.24716789 0.03397711 4278190080
0.25911134 0.24993646 0.041395247 4278190080
0.25911134 0.24993649 0.041395269 4278190080
0.26574042 0.23454434 0.043482456 4278190080
0.26249009 0.23711304 0.045907065 4278190080
0.26359266 0.24624732 0.041900229 4278190080
0.26343137 0.24595511 0.042515106 4278190080
0.26343137 0.24595508 0.042515121 4278190080
0.26214916 0.24799979 0.039058316 4278190080
0.26335043 0.24621166 0.042553693 4278190080
0.26335043 0.24621168 0.042553708 4278190080
0.26211455 0.24828082 0.039751183 4278190080
0.26457208 0.23832589 0.044064835 4278190080
0.26357749 0.2411041 0.04441629 4278190080
0.26336646 0.24203224 0.044601697 4278190080
0.26336649 0.24203229 0.044601716 4278190080
0.2648198 0.23721015 0.043838605 4278190080
0.26238731 0.24655324 0.035311572 4278190080
0.26421374 0.24602643 0.039570361 4278190080
0.26238114 0.24683699 0.035924677 4278190080
0.26499382 0.24183795 0.042043947 4278190080
0.26499379 0.24183795 0.042043954 4278190080
0.26474771 0.242892 0.042250875 4278190080
0.26474768 0.242892 0.042250883 4278190080
0.26474771 0.24289204 0.042250901 4278190080
0.26474768 0.24289204 0.042250909 4278190080
0.26761603 0.2339541 0.040934365 4278190080
0.26761603 0.2339541 0.040934373 4278190080
0.26932889 0.23900473 0.031187333 4278190080
0.26976037 0.24085599 0.033769041 4278190080
0.26924691 0.23798072 0.032946277 4278190080
0.2696889 0.24070059 0.034084328 4278190080
0.26964891 0.24086085 0.034114346 4278190080
0.2693224 0.23827508 0.029678047 4278190080
0.26762152 0.24250382 0.032798331 4278190080
0.26762152 0.24250382 0.032798339 4278190080
0.26735878 0.24075106 0.029915687 4278190080
0.26735878 0.24075106 0.029915694 4278190080
0.26758459 0.24283469 0.033602584 4278190080
0.26758456 0.24283467 0.033602573 4278190080
0.26729798 0.24032941 0.029215012 4278190080
0.26729795 0.2403294 0.029215001 4278190080
0.26990727 0.23524332 0.032420721 4278190080
0.26869982 0.23966889 0.036598824 4278190080
0.26849505 0.24045986 0.036742847 4278190080
0.27100313 0.23552731 0.029721398 4278190080
0.26936069 0.23618025 0.035827689 4278190080
0.27104303 0.23542185 0.02970928 4278190080
0.27104294 0.23542185 0.029709227 4278190080
0.26937133 0.23608902 0.035803795 4278190080
0.26936328 0.2361286 0.035910908 4278190080
0.27121782 0.23561159 0.029252529 4278190080
0.27121812 0.2356118 0.029252097 4278190080
0.26998508 0.23443818 0.032200865 4278190080
0.26998502 0.23443818 0.032200817 4278190080
0.26961213 0.23757064 0.027331118 4278190080
0.26961207 0.23757058 0.027331136 4278190080
0.26726261 0.23909554 0.02673601 4278190080
0.26726267 0.23909554 0.026735976 4278190080
0.26726261 0.23909548 0.026735995 4278190080
0.26726258 0.23909548 0.026736006 4278190080
0.26527357 0.24377847 0.032615334 4278190080
0.26474765 0.24212323 0.029787153 4278190080
0.26504326 0.24384609 0.032508276 4278190080
0.26505196 0.24390027 0.032595634 4278190080
0.26728329 0.24390581 0.036752559 4278190080
0.26728326 0.24390578 0.036752649 4278190080
0.26917028 0.23328501 0.034773342 4278190080
0.26917022 0.23328499 0.034773298 4278190080
0.26717636 0.24375884 0.037082959 4278190080
0.26715404 0.24389301 0.037114352 4278190080
0.26715404 0.24389306 0.037114363 4278190080
0.27192503 0.23546034 0.026809651 4278190080
0.26465929 0.24114436 0.028001808 4278190080
0.26758993 0.23872146 0.03907311 4278190080
0.26830417 0.23586294 0.038538169 4278190080
0.26726839 0.23991197 0.039282419 4278190080
0.26865119 0.23495367 0.038435202 4278190080
0.27123681 0.23178704 0.03203522 4278190080
0.27256536 0.23254049 0.029620048 4278190080
0.26456672 0.24041824 0.026758626 4278190080
0.26456672 0.2404182 0.026758611 4278190080
0.26873887 0.23546153 0.025537133 4278190080
0.26962906 0.23510069 0.025404237 4278190080
0.26616552 0.23685575 0.025341231 4278190080
0.26616549 0.23685575 0.025341239 4278190080
0.26495811 0.24544489 0.036114089 4278190080
0.26995096 0.23111969 0.034502506 4278190080
0.26491177 0.24550784 0.036385279 4278190080
0.26612815 0.24276839 0.039577775 4278190080
0.27389774 0.23330168 0.027209554 4278190080
0.26282713 0.24114913 0.026975803 4278190080
0.26282713 0.24114907 0.026975784 4278190080
0.26845902 0.23205969 0.037380259 4278190080
0.26845896 0.23205966 0.037380222 4278190080
0.26597673 0.24344462 0.039714161 4278190080
0.26597673 0.24344467 0.03971418 4278190080
0.27183256 0.23437098 0.024805188 4278190080
0.26215234 0.24415222 0.030987103 4278190080
0.2620579 0.24344954 0.029798765 4278190080
0.26413667 0.2458778 0.036071636 4278190080
0.26235068 0.24521983 0.032627854 4278190080
0.26356629 0.23823488 0.025191464 4278190080
0.26633698 0.2378737 0.041499816 4278190080
0.26633698 0.2378737 0.041499827 4278190080
0.26167679 0.24162769 0.027127285 4278190080
0.26167673 0.24162763 0.027127277 4278190080
0.26709354 0.23534742 0.041097332 4278190080
0.26709354 0.23534742 0.041097339 4278190080
0.26597691 0.23923329 0.041742854 4278190080
0.26597691 0.23923329 0.041742861 4278190080
