# .PCD v0.7 - Point Cloud Data file format
VERSION 0.7
FIELDS x y z rgb
SIZE 4 4 4 4
TYPE F F F U
COUNT 1 1 1 1
WIDTH 162
HEIGHT 1
VIEWPOINT 0 0 0 1 0 0 0
POINTS 162
DATA ascii
0.06265723 -0.18260393 0.092362702 4278190080
0.064897567 -0.18432739 0.092392996 4278190080
0.065544248 -0.18463367 0.092330724 4278190080
0.069789775 -0.18388294 0.097187608 4278190080
0.06627924 -0.18412152 0.095086053 4278190080
0.073295899 -0.18144514 0.099027768 4278190080
0.073196962 -0.18201612 0.09871269 4278190080
0.073488802 -0.17826061 0.099411756 4278190080
0.073616661 -0.17653668 0.099709302 4278190080
0.069090091 -0.18495126 0.094629213 4278190080
0.072580561 -0.18439654 0.096618846 4278190080
0.073717862 -0.17502674 0.099928632 4278190080
0.070813574 -0.17787868 0.10097045 4278190080
0.070936725 -0.17789224 0.10091008 4278190080
0.070941404 -0.17784332 0.10092253 4278190080
0.071137123 -0.17469747 0.10132164 4278190080
0.070559591 -0.18132813 0.09984909 4278190080
0.06699159 -0.18325281 0.097715124 4278190080
0.070436791 -0.18198478 0.099452212 4278190080
0.060576599 -0.18047637 0.095469244 4278190080
0.060576577 -0.18047643 0.09546911 4278190080
0.060611133 -0.18053521 0.09529686 4278190080
0.060529739 -0.18044844 0.095286794 4278190080
0.060529724 -0.18044837 0.095286772 4278190080
0.063425355 -0.18261391 0.095302887 4278190080
0.071328007 -0.17184258 0.10173456 4278190080
0.071327999 -0.17184252 0.10173456 4278190080
0.064434603 -0.18332973 0.095294043 4278190080
0.071370579 -0.17145763 0.10185467 4278190080
0.066737264 -0.18142812 0.10025229 4278190080
0.067700788 -0.18137826 0.10022029 4278190080
0.067655988 -0.18162856 0.1000767 4278190080
0.064161018 -0.18211243 0.098061979 4278190080
0.064536765 -0.18234847 0.098047376 4278190080
0.069228001 -0.17012049 0.1048121 4278190080
0.065552905 -0.17753707 0.102879 4278190080
0.065446027 -0.17817417 0.1025409 4278190080
0.062022135 -0.17977756 0.10092257 4278190080
0.06202215 -0.17977759 0.10092257 4278190080
0.058382805 -0.17798696 0.098102555 4278190080
0.068729036 -0.17435107 0.10337332 4278190080
0.068729036 -0.17435095 0.1033733 4278190080
0.068761289 -0.17408864 0.10346753 4278190080
0.057015128 -0.17676307 0.098020285 4278190080
0.059910145 -0.17953065 0.098260112 4278190080
0.0690016 -0.17415832 0.10322759 4278190080
0.069001727 -0.17415833 0.10322754 4278190080
0.064842902 -0.18076368 0.1005211 4278190080
0.068309195 -0.17762682 0.1021311 4278190080
0.068591543 -0.17047867 0.10511831 4278190080
0.068210438 -0.17827219 0.10182498 4278190080
0.055440649 -0.17508841 0.097826913 4278190080
0.061296079 -0.18043044 0.09821707 4278190080
0.06129609 -0.18043049 0.098217078 4278190080
0.06708093 -0.16765676 0.10762707 4278190080
0.069129899 -0.17066437 0.10449722 4278190080
0.062004402 -0.17762299 0.10327283 4278190080
0.062702365 -0.17757595 0.10328054 4278190080
0.062702388 -0.17757593 0.10328055 4278190080
0.059152335 -0.17801902 0.10105054 4278190080
0.062665343 -0.17781958 0.10316595 4278190080
0.062665358 -0.17781959 0.10316597 4278190080
0.0596876 -0.17853996 0.10109833 4278190080
0.066541821 -0.17125496 0.10596438 4278190080
0.066108786 -0.17385729 0.10459681 4278190080
0.065997019 -0.17476331 0.10426991 4278190080
0.065997019 -0.17476335 0.10426991 4278190080
0.06667456 -0.17016402 0.10635097 4278190080
0.056219906 -0.17527363 0.10082914 4278190080
0.05982855 -0.176581 0.10347804 4278190080
0.05667533 -0.17576899 0.10088913 4278190080
0.063368149 -0.17374621 0.10540217 4278190080
0.063368157 -0.17374621 0.10540217 4278190080
0.06323947 -0.17477316 0.105024 4278190080
0.063239478 -0.17477316 0.105024 4278190080
0.06323947 -0.17477322 0.10502401 4278190080
0.063239478 -0.17477322 0.10502401 4278190080
0.064542681 -0.166301 0.10906845 4278190080
0.064542696 -0.166301 0.10906845 4278190080
0.053529181 -0.16735795 0.10805856 4278190080
0.055106118 -0.17008726 0.10864289 4278190080
0.055503026 -0.1670835 0.10847969 4278190080
0.055463336 -0.170059 0.10865866 4278190080
0.055443067 -0.17021437 0.10859839 4278190080
0.05242423 -0.16610795 0.10789511 4278190080
0.054148011 -0.17104366 0.10611328 4278190080
0.054148026 -0.17104366 0.10611326 4278190080
0.052224077 -0.16830428 0.10561964 4278190080
0.052224085 -0.16830428 0.10561962 4278190080
0.05476689 -0.17165293 0.1061711 4278190080
0.054766886 -0.17165293 0.10617107 4278190080
0.051754154 -0.16764271 0.10550186 4278190080
0.051754151 -0.1676427 0.10550185 4278190080
0.055842955 -0.1644228 0.1094845 4278190080
0.058337428 -0.16998799 0.10834366 4278190080
0.058235407 -0.17075257 0.10803834 4278190080
0.053041726 -0.16374481 0.10999507 4278190080
0.058721583 -0.1665425 0.10943046 4278190080
0.053058755 -0.1636467 0.11004931 4278190080
0.053058729 -0.16364667 0.11004922 4278190080
0.058729827 -0.16645038 0.10945177 4278190080
0.058814578 -0.16652714 0.1094572 4278190080
0.052537009 -0.16366132 0.11010142 4278190080
0.05253648 -0.16366136 0.11010158 4278190080
0.055911336 -0.16360506 0.10965524 4278190080
0.055911317 -0.16360503 0.10965516 4278190080
0.050482657 -0.16458598 0.10785832 4278190080
0.050482709 -0.16458592 0.10785829 4278190080
0.049957644 -0.16555496 0.1052155 4278190080
0.049957603 -0.16555494 0.10521553 4278190080
0.049957659 -0.1655549 0.10521549 4278190080
0.04995767 -0.1655549 0.10521547 4278190080
0.054084219 -0.17194068 0.10359098 4278190080
0.052237064 -0.16928887 0.10283621 4278190080
0.05401773 -0.17194171 0.10333669 4278190080
0.05407548 -0.17202577 0.10335219 4278190080
0.057307549 -0.1738189 0.10628396 4278190080
0.057307653 -0.1738189 0.10628394 4278190080
0.058839858 -0.16345979 0.10954025 4278190080
0.058839843 -0.16345975 0.10954019 4278190080
0.057683825 -0.17380109 0.10626678 4278190080
0.057669889 -0.17393455 0.10622831 4278190080
0.057669885 -0.17393456 0.1062283 4278190080
0.050213892 -0.16264755 0.1103572 4278190080
0.050990097 -0.16769682 0.10258438 4278190080
0.061173759 -0.1699685 0.10788995 4278190080
0.061535425 -0.16719756 0.1089657 4278190080
0.061016601 -0.17111526 0.10741614 4278190080
0.061682992 -0.16635236 0.10943635 4278190080
0.056406718 -0.16121319 0.11128476 4278190080
0.053641092 -0.16109607 0.1119939 4278190080
0.050144918 -0.1665446 0.10238653 4278190080
0.050144929 -0.16654454 0.10238651 4278190080
0.049814053 -0.16188297 0.10703657 4278190080
0.049611814 -0.1615779 0.10793453 4278190080
0.049749356 -0.1628653 0.10427345 4278190080
0.049749363 -0.16286531 0.10427344 4278190080
0.05673255 -0.17478643 0.10365421 4278190080
0.059178859 -0.16143322 0.11061205 4278190080
0.056966484 -0.17494421 0.10364914 4278190080
0.060539432 -0.1737553 0.10588389 4278190080
0.050876055 -0.16098818 0.11270632 4278190080
0.050492518 -0.16714811 0.10061949 4278190080
0.050492525 -0.16714804 0.10061951 4278190080
0.061800707 -0.16327041 0.10954409 4278190080
0.0618007 -0.16327035 0.10954405 4278190080
0.06045863 -0.17441612 0.1056482 4278190080
0.06045863 -0.17441617 0.1056482 4278190080
0.048808888 -0.16086957 0.11007933 4278190080
0.053215086 -0.17138793 0.10020399 4278190080
0.052411642 -0.17027816 0.10001054 4278190080
0.056734376 -0.17509653 0.10277797 4278190080
0.054273821 -0.17301576 0.10052033 4278190080
0.04973786 -0.16384919 0.10149641 4278190080
0.063965425 -0.17000996 0.1072721 4278190080
0.06396544 -0.17000996 0.1072721 4278190080
0.05073119 -0.16754584 0.09945327 4278190080
0.050731212 -0.16754578 0.099453241 4278190080
0.064319082 -0.16759892 0.1083572 4278190080
0.064319089 -0.16759892 0.10835719 4278190080
0.063787885 -0.17132175 0.10673864 4278190080
0.063787892 -0.17132175 0.10673863 4278190080
