# .PCD v0.7 - Point Cloud Data file format
VERSION 0.7
FIELDS x y z rgb
SIZE 4 4 4 4
TYPE F F F U
COUNT 1 1 1 1
WIDTH 152
HEIGHT 1
VIEWPOINT 0 0 0 1 0 0 0
POINTS 152
DATA ascii
0.12345734 -0.17757553 -0.00042695552 4278190080
0.12500222 -0.17778216 0.0012731105 4278190080
0.12569915 -0.17786142 0.0019919872 4278190080
0.11850936 -0.17711404 -0.005182296 4278190080
0.1228083 -0.17490932 0.00038367137 4278190080
0.12075558 -0.174683 -0.0017091967 4278190080
0.12041103 -0.17466037 -0.0020076334 4278190080
0.12919495 -0.18135105 0.0033248141 4278190080
0.12919493 -0.18135093 0.0033248626 4278190080
0.1289693 -0.1807234 0.0035328567 4278190080
0.12896933 -0.1807234 0.0035328716 4278190080
0.12446944 -0.17504899 0.0019275695 4278190080
0.11746861 -0.17693979 -0.0064482614 4278190080
0.12910907 -0.18073551 0.0036640242 4278190080
0.11710763 -0.17944895 -0.0084458143 4278190080
0.11811349 -0.18196739 -0.0095366873 4278190080
0.11808785 -0.18161607 -0.0092116706 4278190080
0.12716113 -0.18033451 0.00103686 4278190080
0.11789554 -0.17956255 -0.0075504743 4278190080
0.12130181 -0.17743021 -0.002306737 4278190080
0.12078288 -0.17739241 -0.0027689897 4278190080
0.11922359 -0.17976473 -0.006004516 4278190080
0.11825402 -0.18199699 -0.0093448386 4278190080
0.11992696 -0.18441997 -0.010337465 4278190080
0.11992692 -0.18441996 -0.010337453 4278190080
0.12175171 -0.18007694 -0.0033117905 4278190080
0.12147033 -0.18004946 -0.0035864487 4278190080
0.1227921 -0.19153863 -0.012769375 4278190080
0.12270203 -0.18977813 -0.010924593 4278190080
0.12068105 -0.18706118 -0.011166755 4278190080
0.12030385 -0.18232849 -0.0068917871 4278190080
0.12187601 -0.18959768 -0.012074422 4278190080
0.12181795 -0.18075281 -0.0038419776 4278190080
0.12423958 -0.18021007 -0.0012612641 4278190080
0.12705158 -0.19516215 -0.010415182 4278190080
0.12528148 -0.18025093 -0.00045380741 4278190080
0.12283064 -0.18736897 -0.008731436 4278190080
0.12368949 -0.18998532 -0.0095793605 4278190080
0.12218119 -0.18547946 -0.0081121735 4278190080
0.12270458 -0.18257663 -0.0045010932 4278190080
0.12241343 -0.18729964 -0.0092371777 4278190080
0.12209642 -0.18479149 -0.0076700188 4278190080
0.12209642 -0.18479149 -0.0076700523 4278190080
0.1219289 -0.18476284 -0.007875897 4278190080
0.12192889 -0.18476284 -0.0078758933 4278190080
0.12501487 -0.19249085 -0.010510206 4278190080
0.12804446 -0.19540998 -0.0089265518 4278190080
0.12198417 -0.18249691 -0.0052366257 4278190080
0.12388967 -0.1851155 -0.0054070018 4278190080
0.12388965 -0.18511549 -0.0054069981 4278190080
0.12576935 -0.18385263 -0.0025207028 4278190080
0.12584312 -0.19029216 -0.0071447454 4278190080
0.1247997 -0.18771967 -0.006264016 4278190080
0.12691569 -0.19279258 -0.0080145895 4278190080
0.12694068 -0.19285181 -0.0080350973 4278190080
0.12692007 -0.19284746 -0.0080632381 4278190080
0.12566818 -0.18283175 -0.001726158 4278190080
0.12522633 -0.18279603 -0.0021319166 4278190080
0.12634259 -0.18789017 -0.0046896301 4278190080
0.12642033 -0.18533278 -0.0030394122 4278190080
0.12642032 -0.18533278 -0.003039401 4278190080
0.12667617 -0.19041558 -0.0061867721 4278190080
0.12767094 -0.18303375 0.00025098398 4278190080
0.12591925 -0.18527111 -0.0035723038 4278190080
0.12591925 -0.18527113 -0.0035723299 4278190080
0.13277161 -0.18345895 0.004979156 4278190080
0.1294253 -0.18324284 0.0020935498 4278190080
0.13301039 -0.18347451 0.0051855184 4278190080
0.13301042 -0.18347454 0.0051856078 4278190080
0.13703871 -0.18634601 0.0072443262 4278190080
0.13703871 -0.18634599 0.0072443411 4278190080
0.12974992 -0.18575892 0.00055849925 4278190080
0.12974992 -0.18575892 0.0005585365 4278190080
0.12800071 -0.19059807 -0.0047108419 4278190080
0.12869489 -0.18561091 -0.00062628463 4278190080
0.12869486 -0.18561089 -0.00062627718 4278190080
0.12712805 -0.187985 -0.0038604625 4278190080
0.13618623 -0.18628664 0.0064943619 4278190080
0.13618621 -0.18628663 0.0064943694 4278190080
0.12997004 -0.18330604 0.0026597381 4278190080
0.12996998 -0.18330605 0.0026597306 4278190080
0.13437128 -0.1936039 -0.0006904453 4278190080
0.13437127 -0.19360389 -0.00069053471 4278190080
0.13413726 -0.19359757 -0.00086202472 4278190080
0.13413721 -0.19359758 -0.00086203218 4278190080
0.13447803 -0.19438796 -0.0011373833 4278190080
0.13447806 -0.19438826 -0.0011374839 4278190080
0.13447809 -0.19438833 -0.001137495 4278190080
0.13447814 -0.1943886 -0.0011375956 4278190080
0.13681494 -0.19377993 0.0014794171 4278190080
0.13399905 -0.19103816 0.00064309314 4278190080
0.13399902 -0.19103815 0.00064301118 4278190080
0.13516745 -0.19617324 -0.0017403997 4278190080
0.13516739 -0.19617324 -0.0017404072 4278190080
0.13471331 -0.19613814 -0.0021518394 4278190080
0.13471328 -0.19613813 -0.0021519363 4278190080
0.13311625 -0.19101976 1.4718622e-05 4278190080
0.13311619 -0.19101976 1.4718622e-05 4278190080
0.13589346 -0.19117847 0.002338469 4278190080
0.13798878 -0.19386941 0.002538722 4278190080
0.13777648 -0.1963719 0.00061324239 4278190080
0.1383402 -0.19641346 0.0011170991 4278190080
0.13133693 -0.19344436 -0.0031816885 4278190080
0.13762587 -0.1913134 0.0039117299 4278190080
0.1323211 -0.19603094 -0.0040518828 4278190080
0.13946313 -0.19396929 0.003826119 4278190080
0.13858981 -0.19835079 -6.6783279e-05 4278190080
0.13366635 -0.18851367 0.002143953 4278190080
0.13366632 -0.18851365 0.0021438487 4278190080
0.13613951 -0.19876269 -0.0026084669 4278190080
0.13613957 -0.19876267 -0.0026084594 4278190080
0.13079137 -0.19337763 -0.0037605464 4278190080
0.13479102 -0.18861997 0.0032296889 4278190080
0.13049945 -0.19082293 -0.0023375638 4278190080
0.1304234 -0.19081634 -0.0024089403 4278190080
0.13845886 -0.19138749 0.0046998858 4278190080
0.13194555 -0.18847749 0.00091807172 4278190080
0.13194549 -0.1884775 0.00091807172 4278190080
0.13504866 -0.19866541 -0.0036414266 4278190080
0.13504864 -0.1986654 -0.003641516 4278190080
0.13036907 -0.19044045 -0.0022124611 4278190080
0.13866556 -0.19893028 -0.00041484088 4278190080
0.13882878 -0.19894227 -0.00026907027 4278190080
0.14045778 -0.19655339 0.0029540621 4278190080
0.1311119 -0.19588946 -0.0053128265 4278190080
0.13342983 -0.19858792 -0.0049442202 4278190080
0.13739224 -0.18913515 0.0055071712 4278190080
0.13006759 -0.18826774 -0.0010058917 4278190080
0.13726136 -0.18885159 0.0056080036 4278190080
0.13735947 -0.18885805 0.0056930073 4278190080
0.12956351 -0.1882249 -0.0014759377 4278190080
0.14189582 -0.19661437 0.0040843189 4278190080
0.1290687 -0.19316474 -0.0055959374 4278190080
0.14155462 -0.19408099 0.0055491924 4278190080
0.1415038 -0.19912528 0.002072867 4278190080
0.13007732 -0.19574551 -0.0064704753 4278190080
0.13348195 -0.1862565 0.0041216612 4278190080
0.13348192 -0.18625632 0.0041217133 4278190080
0.13705842 -0.20136476 -0.0034670569 4278190080
0.13705848 -0.20136476 -0.0034670494 4278190080
0.13340163 -0.18612967 0.0041719042 4278190080
0.13340163 -0.18612966 0.0041719079 4278190080
0.13347138 -0.18613283 0.0042273998 4278190080
0.1334714 -0.18613285 0.0042274892 4278190080
0.13347138 -0.18613282 0.004227411 4278190080
0.1334714 -0.18613283 0.0042275004 4278190080
0.13900831 -0.20146528 -0.0018731169 4278190080
0.13081177 -0.18592647 0.0018148571 4278190080
0.13081172 -0.18592648 0.0018148497 4278190080
0.13081177 -0.18592645 0.0018148609 4278190080
0.13081169 -0.18592647 0.0018148534 4278190080
0.13145313 -0.19842283 -0.0067776516 4278190080
