# .PCD v0.7 - Point Cloud Data file format
VERSION 0.7
FIELDS x y z rgb
SIZE 4 4 4 4
TYPE F F F U
COUNT 1 1 1 1
WIDTH 159
HEIGHT 1
VIEWPOINT 0 0 0 1 0 0 0
POINTS 159
DATA ascii
-0.02321657 -0.18565887 -0.062818415 4278190080
-0.02321657 -0.18565886 -0.062818483 4278190080
-0.014651056 -0.18296048 -0.062735818 4278190080
-0.014651138 -0.18296045 -0.062735826 4278190080
-0.025453329 -0.18849869 -0.062358234 4278190080
-0.011775116 -0.18537425 -0.058708731 4278190080
-0.011775117 -0.18537423 -0.058708794 4278190080
-0.0089029633 -0.18806298 -0.056027245 4278190080
-0.01178094 -0.18439537 -0.059792858 4278190080
-0.020360198 -0.18500395 -0.062591165 4278190080
-0.0089083128 -0.18682927 -0.056787815 4278190080
-0.017505793 -0.18393379 -0.062666498 4278190080
-0.022585824 -0.18564023 -0.062544733 4278190080
-0.022585981 -0.18564025 -0.062544733 4278190080
-0.023214264 -0.18621445 -0.062507108 4278190080
-0.0089146784 -0.1853012 -0.057650868 4278190080
-0.0089146793 -0.18530118 -0.057650931 4278190080
-0.01176363 -0.18814056 -0.057157893 4278190080
-0.017495478 -0.18550849 -0.060633775 4278190080
-0.017495478 -0.18550847 -0.060633846 4278190080
-0.023205625 -0.18843588 -0.061439935 4278190080
-0.014635041 -0.18558905 -0.059709847 4278190080
-0.014635123 -0.18558899 -0.059709847 4278190080
-0.014635698 -0.1854485 -0.059786085 4278190080
-0.014635699 -0.1854485 -0.059786163 4278190080
-0.014635616 -0.1854485 -0.059786107 4278190080
-0.014635617 -0.1854485 -0.059786186 4278190080
-0.014472725 -0.18544394 -0.059719365 4278190080
-0.014472546 -0.18544392 -0.059719369 4278190080
-0.010666208 -0.18810947 -0.056702826 4278190080
-0.020355947 -0.18558231 -0.061703976 4278190080
-0.020355947 -0.1855823 -0.06170404 4278190080
-0.025265405 -0.19134992 -0.062181644 4278190080
-0.0088853221 -0.19370106 -0.05462252 4278190080
-0.0088939415 -0.19087805 -0.055261023 4278190080
-0.017484223 -0.18827944 -0.059157636 4278190080
-0.018490393 -0.18830509 -0.059529137 4278190080
-0.023198768 -0.19129373 -0.061362267 4278190080
-0.020344924 -0.18835782 -0.060301263 4278190080
-0.011755619 -0.19097559 -0.056713179 4278190080
-0.014624523 -0.18822098 -0.058334436 4278190080
-0.014624441 -0.18822098 -0.058334466 4278190080
-0.011340196 -0.19096275 -0.056523435 4278190080
-0.017487558 -0.18744609 -0.059585616 4278190080
-0.0250837 -0.19420119 -0.062005032 4278190080
-0.018820835 -0.19400924 -0.059173662 4278190080
-0.020330457 -0.19405863 -0.059906516 4278190080
-0.014608178 -0.19388467 -0.057342123 4278190080
-0.014608096 -0.19388467 -0.057342153 4278190080
-0.017476143 -0.19111308 -0.058690459 4278190080
-0.018944854 -0.19115785 -0.059350461 4278190080
-0.012199313 -0.19666815 -0.056166247 4278190080
-0.023175463 -0.19981326 -0.060259804 4278190080
-0.023184557 -0.19699967 -0.061049767 4278190080
-0.011739588 -0.19664551 -0.05582089 4278190080
-0.020337645 -0.19120729 -0.060088925 4278190080
-0.012068525 -0.19381614 -0.056343872 4278190080
-0.014616541 -0.19105656 -0.057898574 4278190080
-0.014616459 -0.19105656 -0.057898596 4278190080
-0.023191756 -0.19414854 -0.061235707 4278190080
-0.011747343 -0.1938054 -0.056184243 4278190080
-0.011750722 -0.19267225 -0.05641593 4278190080
-0.017462894 -0.19683805 -0.058684126 4278190080
-0.018153423 -0.19685936 -0.058998622 4278190080
-0.011718916 -0.19784057 -0.050369523 4278190080
-0.014601924 -0.19675444 -0.057456188 4278190080
-0.014601842 -0.19675444 -0.057456225 4278190080
-0.011728945 -0.19759251 -0.053247575 4278190080
-0.011728945 -0.19759251 -0.053247605 4278190080
-0.02032377 -0.1969199 -0.059883587 4278190080
-0.011708518 -0.1982346 -0.047482383 4278190080
-0.017469052 -0.19396633 -0.058538664 4278190080
-0.02316286 -0.20255755 -0.058354225 4278190080
-0.020313088 -0.19999854 -0.058796875 4278190080
-0.02316427 -0.20235634 -0.058641531 4278190080
-0.019965857 -0.19971532 -0.058815546 4278190080
-0.023473594 -0.20257528 -0.058626968 4278190080
-0.020314306 -0.19972615 -0.058975585 4278190080
-0.014594781 -0.19789225 -0.056082767 4278190080
-0.014594699 -0.19789228 -0.056082763 4278190080
-0.019138161 -0.20470814 -0.047057118 4278190080
-0.019138109 -0.20470811 -0.047057122 4278190080
-0.019823182 -0.20488691 -0.049906578 4278190080
-0.019823138 -0.20488688 -0.049906582 4278190080
-0.018233776 -0.20203146 -0.050088931 4278190080
-0.017416369 -0.20190498 -0.048086673 4278190080
-0.020270906 -0.20555206 -0.04986386 4278190080
-0.017412586 -0.20229889 -0.047212172 4278190080
-0.020275751 -0.20495075 -0.050915532 4278190080
-0.020275753 -0.20495072 -0.050915644 4278190080
-0.017147552 -0.20185174 -0.047240775 4278190080
-0.017425552 -0.20088309 -0.050162796 4278190080
-0.020258481 -0.20675312 -0.046926577 4278190080
-0.020285349 -0.20354906 -0.052850954 4278190080
-0.020285349 -0.20354901 -0.052850977 4278190080
-0.01944357 -0.20221147 -0.052936677 4278190080
-0.019443607 -0.20221147 -0.052936699 4278190080
-0.018208833 -0.20452879 -0.044208452 4278190080
-0.018208791 -0.20452876 -0.044208452 4278190080
-0.021199606 -0.20506728 -0.052753776 4278190080
-0.021199672 -0.20506731 -0.052753776 4278190080
-0.021199644 -0.20506728 -0.052753799 4278190080
-0.021199709 -0.20506731 -0.052753799 4278190080
-0.020704368 -0.20756349 -0.046874844 4278190080
-0.017400416 -0.20339853 -0.044281192 4278190080
-0.022187745 -0.20774415 -0.04972171 4278190080
-0.020252785 -0.20749003 -0.045710847 4278190080
-0.016558245 -0.19917582 -0.050271571 4278190080
-0.016388057 -0.20167281 -0.044391561 4278190080
-0.015910268 -0.19899714 -0.047421992 4278190080
-0.023127001 -0.20783536 -0.05115138 4278190080
-0.020294307 -0.20232417 -0.054715823 4278190080
-0.017437829 -0.19974136 -0.053096369 4278190080
-0.017437829 -0.19974133 -0.053096395 4278190080
-0.019605387 -0.20738375 -0.044026725 4278190080
-0.023133554 -0.20709108 -0.052622054 4278190080
-0.023133554 -0.20709112 -0.052622028 4278190080
-0.017139914 -0.19935435 -0.053121366 4278190080
-0.017139891 -0.19935435 -0.053121351 4278190080
-0.02311952 -0.2089306 -0.049645096 4278190080
-0.017391745 -0.20441152 -0.042354725 4278190080
-0.017391745 -0.20441154 -0.04235464 4278190080
-0.017441778 -0.19941391 -0.054067783 4278190080
-0.014564733 -0.19862033 -0.04744957 4278190080
-0.014564651 -0.19862035 -0.04744957 4278190080
-0.020793347 -0.2023918 -0.055783976 4278190080
-0.020299088 -0.20182571 -0.055820685 4278190080
-0.024204087 -0.20792606 -0.052566834 4278190080
-0.024204131 -0.20792606 -0.052566856 4278190080
-0.014557489 -0.19886929 -0.04541979 4278190080
-0.014557407 -0.1988693 -0.045419879 4278190080
-0.014574219 -0.19858852 -0.050314203 4278190080
-0.014574137 -0.19858854 -0.050314203 4278190080
-0.014553119 -0.19949833 -0.044532362 4278190080
-0.014553037 -0.19949839 -0.044532359 4278190080
-0.020243274 -0.20906034 -0.043920569 4278190080
-0.023147359 -0.20524451 -0.055525854 4278190080
-0.023147359 -0.20524448 -0.055525959 4278190080
-0.017018324 -0.20434883 -0.041360635 4278190080
-0.017018296 -0.2043488 -0.041360639 4278190080
-0.023147745 -0.20518735 -0.055602971 4278190080
-0.023204014 -0.20524916 -0.055598959 4278190080
-0.023204086 -0.20524919 -0.055598959 4278190080
-0.022203332 -0.21041873 -0.046692774 4278190080
-0.017386166 -0.20532501 -0.041298836 4278190080
-0.023110313 -0.21049888 -0.047945566 4278190080
-0.015316894 -0.20149311 -0.041543353 4278190080
-0.018121438 -0.19953382 -0.055969842 4278190080
-0.018151898 -0.20720316 -0.041179761 4278190080
-0.024464982 -0.21060123 -0.049537122 4278190080
-0.02062504 -0.21023785 -0.04384622 4278190080
-0.014583764 -0.19853313 -0.053180289 4278190080
-0.014583764 -0.19853312 -0.053180311 4278190080
-0.014583682 -0.19853318 -0.053180285 4278190080
-0.014583682 -0.19853316 -0.053180307 4278190080
-0.017448517 -0.19923116 -0.055990729 4278190080
-0.014539653 -0.20111379 -0.041569334 4278190080
-0.014539571 -0.20111382 -0.04156933 4278190080
-0.020237774 -0.21018669 -0.043038487 4278190080
