# .PCD v0.7 - Point Cloud Data file format
VERSION 0.7
FIELDS x y z rgba label
SIZE 4 4 4 4 4
TYPE F F F U U
COUNT 1 1 1 1 1
WIDTH 190
HEIGHT 1
VIEWPOINT 0 0 0 1 0 0 0
POINTS 190
DATA ascii
-0.022857163 0.026457749 0.09142863 4278190080 14489
-0.022857163 0.026978461 0.088571489 4278190080 14488
-0.03142859 0.034285732 0.083276734 4278190080 14439
-0.032537527 0.034285732 0.082857199 4278190080 14437
-0.022857163 0.026013317 0.094285771 4278190080 14490
-0.025714304 0.029213047 0.08571434 4278190080 14470
-0.025059536 0.028571447 0.08571434 4278190080 14486
-0.039999999 0.033121552 0.08571434 4278190080 14739
-0.040000018 0.033121552 0.08571434 4278190080 14405
-0.034285732 0.033939406 0.082857199 4278190080 14422
-0.026583903 0.028571447 0.088571489 4278190080 14462
-0.029354479 0.03142859 0.08571434 4278190080 14452
-0.025714304 0.028124481 0.088571489 4278190080 14463
-0.028571447 0.031045046 0.08571434 4278190080 14453
-0.025714304 0.028571447 0.086840913 4278190080 14464
-0.028571447 0.03142859 0.084947713 4278190080 14454
-0.028571447 0.029122371 0.09142863 4278190080 14456
-0.031554129 0.03142859 0.088571489 4278190080 14428
-0.034285732 0.033180151 0.088571489 4278190080 14425
-0.03142859 0.03136383 0.088571489 4278190080 14429
-0.03142859 0.03142859 0.088319309 4278190080 14430
-0.037142877 0.033468504 0.088571489 4278190080 14408
-0.027611664 0.028571447 0.09142863 4278190080 14465
-0.039999999 0.032994587 0.088571489 4278190080 14740
-0.040000018 0.03299458 0.088571489 4278190080 14407
-0.028571447 0.029806601 0.088571489 4278190080 14455
-0.025714304 0.027097777 0.094285771 4278190080 14467
-0.037142877 0.03328377 0.08571434 4278190080 14406
-0.034285732 0.033669069 0.08571434 4278190080 14424
-0.025714304 0.027564349 0.09142863 4278190080 14466
-0.042857144 0.032742325 0.088571489 4278190080 14732
-0.03142859 0.032794099 0.08571434 4278190080 14440
-0.025714304 0.026619503 0.097142912 4278190080 14468
-0.034285732 0.031716987 0.094285771 4278190080 14427
-0.033857398 0.03142859 0.094285771 4278190080 14433
-0.03142859 0.030007966 0.094285771 4278190080 14434
-0.029789584 0.028571447 0.097142912 4278190080 14448
-0.034285732 0.032391485 0.09142863 4278190080 14426
-0.032809395 0.03142859 0.09142863 4278190080 14431
-0.037142877 0.033451371 0.09142863 4278190080 14410
-0.040000018 0.032936715 0.09142863 4278190080 14409
-0.039999999 0.032936726 0.09142863 4278190080 14741
-0.028571447 0.027877528 0.097142912 4278190080 14449
-0.03142859 0.030658869 0.09142863 4278190080 14432
-0.028571447 0.027388386 0.10000004 4278190080 13878
-0.028571447 0.027388372 0.10000005 4278190080 14451
-0.028591409 0.028571447 0.094285771 4278190080 14445
-0.028571447 0.028559702 0.094285771 4278190080 14446
-0.028571447 0.028571447 0.09422984 4278190080 14447
-0.042857144 0.03264726 0.09142863 4278190080 14733
-0.045714285 0.032078043 0.094285771 4278190080 14726
-0.028571447 0.026477518 0.10285718 4278190080 13879
-0.031008566 0.028571447 0.10000005 4278190080 14450
-0.03100853 0.028571447 0.10000004 4278190080 13877
-0.034285732 0.03142859 0.095571689 4278190080 14419
-0.037142877 0.033066265 0.094285771 4278190080 14412
-0.03142859 0.029385472 0.097142912 4278190080 14435
-0.035092499 0.03142859 0.097142912 4278190080 14417
-0.034285732 0.031057946 0.097142912 4278190080 14418
-0.03142859 0.028101306 0.10285718 4278190080 13861
-0.03142859 0.028571447 0.10105556 4278190080 13862
-0.042857144 0.032655314 0.094285771 4278190080 14734
-0.040000018 0.032919321 0.094285771 4278190080 14411
-0.039999999 0.032919336 0.094285771 4278190080 14742
-0.04857143 0.031464998 0.097142912 4278190080 14713
-0.03142859 0.026876109 0.10571433 4278190080 13864
-0.048661649 0.03142859 0.097142912 4278190080 14705
-0.03142859 0.028754987 0.10000005 4278190080 14436
-0.03142859 0.028755004 0.10000004 4278190080 13865
-0.040000018 0.032333732 0.10000005 4278190080 14415
-0.039999999 0.032333732 0.10000005 4278190080 14744
-0.040000018 0.03233375 0.10000004 4278190080 13836
-0.039999999 0.03233375 0.10000004 4278190080 14229
-0.037142877 0.03142859 0.1004341 4278190080 13828
-0.037142877 0.031541236 0.10000005 4278190080 14416
-0.037142877 0.031541254 0.10000004 4278190080 13835
-0.036944166 0.03142859 0.10000005 4278190080 14420
-0.036944132 0.03142859 0.10000004 4278190080 13848
-0.034285732 0.028617034 0.10571433 4278190080 13851
-0.034285732 0.028571447 0.10584477 4278190080 13847
-0.034185417 0.028571447 0.10571433 4278190080 13863
-0.034285732 0.029388864 0.10285718 4278190080 13850
-0.042857144 0.0324389 0.097142912 4278190080 14735
-0.034285732 0.026993563 0.10857146 4278190080 13846
-0.040000018 0.032798812 0.097142912 4278190080 14413
-0.039999999 0.032798819 0.097142912 4278190080 14743
-0.034285732 0.030170564 0.10000005 4278190080 14421
-0.034285732 0.030170584 0.10000004 4278190080 13849
-0.04857143 0.03142859 0.099208876 4278190080 14706
-0.045714285 0.031953689 0.097142912 4278190080 14727
-0.032335002 0.028571447 0.10285718 4278190080 13860
-0.037142877 0.032467339 0.097142912 4278190080 14414
-0.040000018 0.031756114 0.10285718 4278190080 13834
-0.039999999 0.03175611 0.10285718 4278190080 14228
-0.039082032 0.03142859 0.10285718 4278190080 13826
-0.045714285 0.031813223 0.10000005 4278190080 14728
-0.045714285 0.03181323 0.10000004 4278190080 14200
-0.052692853 0.028571447 0.10285718 4278190080 14166
-0.042857144 0.031995948 0.10000005 4278190080 14736
-0.042857144 0.031995956 0.10000004 4278190080 14216
-0.037142877 0.030751415 0.10285718 4278190080 13827
-0.048476845 0.03142859 0.10000005 4278190080 14717
-0.04847689 0.03142859 0.10000004 4278190080 14196
-0.04857143 0.031411372 0.10000005 4278190080 14707
-0.04857143 0.03141138 0.10000004 4278190080 14185
-0.040000018 0.030712411 0.10571433 4278190080 13830
-0.039999999 0.030712403 0.10571433 4278190080 14225
-0.037142877 0.026551358 0.11142861 4278190080 13823
-0.042857144 0.03142859 0.10345628 4278190080 14212
-0.045714285 0.03141363 0.10285718 4278190080 14197
-0.045468491 0.03142859 0.10285718 4278190080 14211
-0.045714285 0.03142859 0.10277742 4278190080 14195
-0.037142877 0.028571447 0.10862447 4278190080 13824
-0.037142877 0.028599275 0.10857146 4278190080 13833
-0.037081573 0.028571447 0.10857146 4278190080 13845
-0.037142877 0.025714304 0.1129773 4278190080 13818
-0.042857144 0.031553224 0.10285718 4278190080 14215
-0.040000018 0.03142859 0.10402957 4278190080 13829
-0.039999999 0.03142859 0.10402956 4278190080 14226
-0.037142877 0.024856057 0.11428575 4278190080 13817
-0.051428571 0.029738612 0.10285718 4278190080 14174
-0.037142877 0.029745277 0.10571433 4278190080 13831
-0.04857143 0.028213229 0.11142861 4278190080 14181
-0.04857143 0.026518917 0.11428575 4278190080 14183
-0.045714285 0.027810885 0.11142861 4278190080 14192
-0.04857143 0.028571447 0.11053478 4278190080 14182
-0.045714285 0.02579052 0.11428575 4278190080 14194
-0.045714285 0.025714304 0.11439407 4278190080 14191
-0.045714285 0.028571447 0.11019722 4278190080 14193
-0.045125093 0.025714304 0.11428575 4278190080 14206
-0.04857143 0.025714304 0.11540106 4278190080 14180
-0.051428571 0.028065402 0.11142861 4278190080 14171
-0.051428571 0.026276939 0.11428575 4278190080 14172
-0.04857143 0.029306505 0.10857146 4278190080 14187
-0.051428571 0.028571447 0.11001437 4278190080 14170
-0.051428571 0.025714304 0.11505616 4278190080 14165
-0.045714285 0.029374881 0.10857146 4278190080 14199
-0.042857144 0.027604006 0.11142861 4278190080 14209
-0.042857144 0.025714304 0.11385354 4278190080 14208
-0.042857144 0.02535552 0.11428575 4278190080 14207
-0.04857143 0.024309177 0.1171429 4278190080 14179
-0.051428571 0.029051678 0.10857146 4278190080 14176
-0.042857144 0.028571447 0.11013628 4278190080 14210
-0.052454878 0.028571447 0.10857146 4278190080 14169
-0.045714285 0.023194868 0.1171429 4278190080 14190
-0.054285713 0.027533211 0.11142861 4278190080 14160
-0.042857144 0.029433021 0.10857146 4278190080 14214
-0.051428571 0.024052646 0.1171429 4278190080 14164
-0.045714285 0.022857163 0.11757938 4278190080 14189
-0.054285713 0.026337225 0.11428575 4278190080 14161
-0.044166617 0.022857163 0.1171429 4278190080 14201
-0.054285713 0.025714304 0.1153633 4278190080 14155
-0.04857143 0.022857163 0.11850162 4278190080 14178
-0.054285713 0.027752709 0.10857146 4278190080 14159
-0.04857143 0.03037698 0.10571433 4278190080 14186
-0.042857144 0.022857163 0.11686584 4278190080 14203
-0.040000018 0.027107118 0.11142861 4278190080 13822
-0.039999999 0.027107107 0.11142861 4278190080 14223
-0.045714285 0.030532185 0.10571433 4278190080 14198
-0.051428571 0.029574303 0.10571433 4278190080 14175
-0.040000018 0.025714304 0.1137076 4278190080 13819
-0.039999999 0.025714304 0.11370759 4278190080 14221
-0.042857144 0.022558846 0.1171429 4278190080 14202
-0.040000018 0.025292987 0.11428575 4278190080 13816
-0.039999999 0.025292981 0.11428575 4278190080 14220
-0.052757673 0.028571447 0.10571433 4278190080 14168
-0.040000018 0.028571447 0.10949081 4278190080 13825
-0.039999999 0.028571447 0.1094908 4278190080 14224
-0.051428571 0.022857163 0.11876575 4278190080 14163
-0.054285713 0.024496388 0.1171429 4278190080 14154
-0.040000018 0.029096568 0.10857146 4278190080 13832
-0.039999999 0.029096557 0.10857146 4278190080 14227
-0.042857144 0.030749965 0.10571433 4278190080 14213
-0.054285713 0.027835498 0.10571433 4278190080 14158
-0.040783137 0.022857163 0.1171429 4278190080 14217
-0.057142857 0.026871456 0.11142861 4278190080 14148
-0.057142857 0.026451888 0.11428575 4278190080 14150
-0.040000018 0.022958132 0.1171429 4278190080 13820
-0.039999999 0.022958135 0.1171429 4278190080 14222
-0.057142857 0.027050201 0.10857146 4278190080 14146
-0.040000018 0.022857163 0.11727613 4278190080 13815
-0.039999999 0.022857163 0.11727614 4278190080 14218
-0.051428571 0.021449244 0.12000002 4278190080 12964
-0.051428571 0.021449145 0.12000003 4278190080 14162
-0.04857143 0.020169208 0.12000002 4278190080 12966
-0.04857143 0.020169035 0.12000003 4278190080 14177
-0.057142857 0.025714304 0.11597088 4278190080 14135
-0.04857143 0.03109861 0.10285718 4278190080 14184
-0.04857143 0.020000039 0.1201553 4278190080 12564
-0.04857143 0.020000018 0.12015536 4278190080 12965
