# .PCD v0.7 - Point Cloud Data file format
VERSION 0.7
FIELDS x y z rgb
SIZE 4 4 4 4
TYPE F F F U
COUNT 1 1 1 1
WIDTH 159
HEIGHT 1
VIEWPOINT 0 0 0 1 0 0 0
POINTS 159
DATA ascii
-0.035630222 -0.18174613 -0.055596549 4278190080
-0.035630226 -0.18174611 -0.055596616 4278190080
-0.02700324 -0.17926347 -0.055866331 4278190080
-0.027003322 -0.17926344 -0.055866323 4278190080
-0.037915882 -0.18453529 -0.055071704 4278190080
-0.024012234 -0.18180302 -0.052003704 4278190080
-0.024012236 -0.181803 -0.052003764 4278190080
-0.021092253 -0.18459889 -0.04948847 4278190080
-0.024041634 -0.18080959 -0.053074066 4278190080
-0.032750651 -0.18116578 -0.05549011 4278190080
-0.021100201 -0.18335515 -0.050232455 4278190080
-0.029876012 -0.18016618 -0.05568061 4278190080
-0.034987558 -0.18174696 -0.05535138 4278190080
-0.034987714 -0.18174697 -0.055351373 4278190080
-0.03562814 -0.18230578 -0.055292673 4278190080
-0.021106247 -0.18181576 -0.051075075 4278190080
-0.021106249 -0.18181576 -0.051075134 4278190080
-0.024001841 -0.18458965 -0.050489854 4278190080
-0.029814843 -0.1817683 -0.053670395 4278190080
-0.029814845 -0.18176828 -0.053670462 4278190080
-0.03562836 -0.18454109 -0.054254979 4278190080
-0.026918774 -0.18193275 -0.052877463 4278190080
-0.026918855 -0.18193269 -0.052877463 4278190080
-0.026919261 -0.1817912 -0.05295182 4278190080
-0.026919264 -0.18179119 -0.052951895 4278190080
-0.026919182 -0.1817912 -0.052951846 4278190080
-0.026919184 -0.1817912 -0.052951921 4278190080
-0.026753396 -0.18179162 -0.052892469 4278190080
-0.026753215 -0.1817916 -0.052892476 4278190080
-0.022884665 -0.18459217 -0.050084379 4278190080
-0.03272143 -0.18175614 -0.054611366 4278190080
-0.03272143 -0.18175612 -0.054611426 4278190080
-0.037792966 -0.18739243 -0.054939594 4278190080
-0.02115545 -0.19025424 -0.04815691 4278190080
-0.02112069 -0.18742348 -0.048758868 4278190080
-0.029808147 -0.18455854 -0.052231207 4278190080
-0.030830305 -0.18455403 -0.052557252 4278190080
-0.035690874 -0.18739897 -0.054213595 4278190080
-0.032718364 -0.18454994 -0.053245563 4278190080
-0.02404619 -0.18742979 -0.050081603 4278190080
-0.026913779 -0.18458264 -0.051537115 4278190080
-0.026913699 -0.18458265 -0.051537149 4278190080
-0.023622476 -0.18742989 -0.049910642 4278190080
-0.029809393 -0.18371961 -0.052648094 4278190080
-0.03767626 -0.19024943 -0.054807179 4278190080
-0.031289801 -0.19025239 -0.052258916 4278190080
-0.03283155 -0.19025412 -0.052923504 4278190080
-0.026997386 -0.19025794 -0.050617781 4278190080
-0.026997305 -0.19025794 -0.050617814 4278190080
-0.029851384 -0.1873976 -0.051800501 4278190080
-0.031348892 -0.18739671 -0.052394114 4278190080
-0.024609922 -0.19311637 -0.049586773 4278190080
-0.035835389 -0.1959306 -0.053220414 4278190080
-0.035808127 -0.19310714 -0.053973753 4278190080
-0.02413475 -0.19310993 -0.049262241 4278190080
-0.032774217 -0.18740131 -0.053069584 4278190080
-0.024414558 -0.1902664 -0.04973428 4278190080
-0.026958566 -0.1874232 -0.051137716 4278190080
-0.026958484 -0.1874232 -0.051137742 4278190080
-0.03575097 -0.19025448 -0.054123349 4278190080
-0.024086373 -0.19026585 -0.049589176 4278190080
-0.024071239 -0.18912993 -0.049806222 4278190080
-0.029983791 -0.19312057 -0.051866677 4278190080
-0.030688051 -0.19312035 -0.052149959 4278190080
-0.023900514 -0.1943796 -0.043832898 4278190080
-0.027069392 -0.1931251 -0.05076804 4278190080
-0.027069312 -0.1931251 -0.050768081 4278190080
-0.024033055 -0.19409199 -0.046704173 4278190080
-0.024033055 -0.19409199 -0.046704195 4278190080
-0.032896772 -0.19311465 -0.052936845 4278190080
-0.023770921 -0.19481322 -0.040954392 4278190080
-0.029910233 -0.19025189 -0.051685035 4278190080
-0.035807442 -0.1987001 -0.051351991 4278190080
-0.03291592 -0.19620714 -0.051890489 4278190080
-0.03581658 -0.19849502 -0.05163639 4278190080
-0.032562751 -0.19593245 -0.051921241 4278190080
-0.036130432 -0.19870634 -0.051610649 4278190080
-0.032918192 -0.1959324 -0.052065518 4278190080
-0.027029773 -0.1942814 -0.04941076 4278190080
-0.027029693 -0.19428143 -0.049410764 4278190080
-0.031336974 -0.20110467 -0.040275946 4278190080
-0.031336922 -0.20110464 -0.04027595 4278190080
-0.032153238 -0.20122729 -0.043093588 4278190080
-0.032153193 -0.20122728 -0.043093596 4278190080
-0.030501259 -0.19841017 -0.043311536 4278190080
-0.029592039 -0.19833152 -0.04134677 4278190080
-0.032615427 -0.2018816 -0.043039087 4278190080
-0.02955915 -0.19873734 -0.040478364 4278190080
-0.03265202 -0.20126602 -0.044081811 4278190080
-0.032652024 -0.20126601 -0.044081926 4278190080
-0.029284341 -0.19829658 -0.040513266 4278190080
-0.029668109 -0.19728142 -0.043407332 4278190080
-0.03250213 -0.20312266 -0.040120721 4278190080
-0.032712523 -0.19983821 -0.045997035 4278190080
-0.032712527 -0.19983816 -0.045997061 4278190080
-0.031841572 -0.19852099 -0.046103816 4278190080
-0.03184161 -0.19852099 -0.046103835 4278190080
-0.030276742 -0.20098753 -0.037470099 4278190080
-0.030276697 -0.2009875 -0.037470106 4278190080
-0.03365995 -0.20133433 -0.045877822 4278190080
-0.033660017 -0.20133436 -0.045877814 4278190080
-0.033659991 -0.20133433 -0.045877844 4278190080
-0.033660058 -0.20133436 -0.045877837 4278190080
-0.032965783 -0.20392229 -0.040059119 4278190080
-0.029443808 -0.19987689 -0.037565008 4278190080
-0.034579311 -0.20402694 -0.042838208 4278190080
-0.032460798 -0.20387603 -0.038915854 4278190080
-0.028763268 -0.19559501 -0.043533642 4278190080
-0.028393704 -0.19817562 -0.037699219 4278190080
-0.027984001 -0.19547155 -0.040714212 4278190080
-0.03558369 -0.20407516 -0.044225082 4278190080
-0.032773737 -0.19858809 -0.047844037 4278190080
-0.029782601 -0.19609974 -0.046322741 4278190080
-0.029782601 -0.19609971 -0.046322767 4278190080
-0.031736128 -0.20380898 -0.037261467 4278190080
-0.035637103 -0.20331089 -0.045684472 4278190080
-0.035637103 -0.20331094 -0.045684449 4278190080
-0.029476322 -0.19571997 -0.046356276 4278190080
-0.029476298 -0.19571997 -0.046356257 4278190080
-0.035536703 -0.2051907 -0.042734575 4278190080
-0.029374724 -0.20091604 -0.035653796 4278190080
-0.029374719 -0.20091605 -0.03565371 4278190080
-0.029821686 -0.19575904 -0.047288783 4278190080
-0.026631827 -0.19512804 -0.040797692 4278190080
-0.026631746 -0.19512805 -0.040797696 4278190080
-0.033321682 -0.19862865 -0.048889354 4278190080
-0.03281527 -0.19807461 -0.048941195 4278190080
-0.03672507 -0.20411959 -0.045591533 4278190080
-0.036725115 -0.20411959 -0.045591556 4278190080
-0.026540067 -0.19540487 -0.038773615 4278190080
-0.026539989 -0.19540487 -0.038773708 4278190080
-0.026768737 -0.19505681 -0.043658309 4278190080
-0.026768655 -0.19505683 -0.043658309 4278190080
-0.02651201 -0.19604588 -0.037895285 4278190080
-0.02651193 -0.19604594 -0.037895285 4278190080
-0.032411177 -0.20547041 -0.037147723 4278190080
-0.035733826 -0.20142502 -0.048561223 4278190080
-0.03573383 -0.20142499 -0.048561331 4278190080
-0.028955679 -0.20087628 -0.034676865 4278190080
-0.02895565 -0.20087625 -0.034676872 4278190080
-0.035736203 -0.20136683 -0.048637517 4278190080
-0.035793796 -0.20142725 -0.048631746 4278190080
-0.035793871 -0.20142728 -0.048631743 4278190080
-0.034527447 -0.20674145 -0.039845541 4278190080
-0.029345164 -0.20184374 -0.034610815 4278190080
-0.035491392 -0.20678182 -0.04105705 4278190080
-0.027191833 -0.19806169 -0.034900222 4278190080
-0.030588681 -0.19583593 -0.049159579 4278190080
-0.030152453 -0.20370366 -0.034480937 4278190080
-0.036918178 -0.20682858 -0.042587042 4278190080
-0.032819141 -0.20663893 -0.037071034 4278190080
-0.026905166 -0.19496201 -0.046520062 4278190080
-0.026905168 -0.19496199 -0.046520088 4278190080
-0.026905086 -0.19496205 -0.046520066 4278190080
-0.026905086 -0.19496204 -0.046520088 4278190080
-0.029909847 -0.19554989 -0.049206987 4278190080
-0.026407083 -0.19770154 -0.034956452 4278190080
-0.026407002 -0.19770157 -0.034956455 4278190080
-0.032394901 -0.20660849 -0.036281027 4278190080
