# .PCD v0.7 - Point Cloud Data file format
VERSION 0.7
FIELDS x y z rgb
SIZE 4 4 4 4
TYPE F F F U
COUNT 1 1 1 1
WIDTH 258
HEIGHT 1
VIEWPOINT 0 0 0 1 0 0 0
POINTS 258
DATA ascii
0.051765434 -0.19115569 -0.0014569946 4278190080
0.050357878 -0.19165786 -0.0014387341 4278190080
0.048881732 -0.1923535 -0.0014126701 4278190080
0.05464562 -0.19012068 -0.0014946638 4278190080
0.051752582 -0.19165412 -0.00060930476 4278190080
0.057596792 -0.18626599 -0.0056425352 4278190080
0.057596806 -0.18626599 -0.0056425054 4278190080
0.048899144 -0.19166888 -0.0024804091 4278190080
0.054674812 -0.18896319 -0.0032024859 4278190080
0.057627704 -0.18503644 -0.0074166171 4278190080
0.057627719 -0.18503642 -0.0074166176 4278190080
0.055681497 -0.18355645 -0.010339729 4278190080
0.054695334 -0.18815304 -0.0044344869 4278190080
0.054695334 -0.18815309 -0.0044344654 4278190080
0.051820796 -0.18896358 -0.004721798 4278190080
0.048926972 -0.19059287 -0.0043440321 4278190080
0.048926972 -0.19059291 -0.0043440117 4278190080
0.051814795 -0.18920445 -0.0043961462 4278190080
0.051814795 -0.18920451 -0.0043961247 4278190080
0.054750521 -0.18593258 -0.0073846215 4278190080
0.04320189 -0.19136137 -0.0071812719 4278190080
0.054742426 -0.18625757 -0.0069466736 4278190080
0.052353028 -0.18896213 -0.0044051856 4278190080
0.052353162 -0.18896215 -0.004405167 4278190080
0.046046041 -0.19169252 -0.0045684883 4278190080
0.046426754 -0.19168991 -0.0043032095 4278190080
0.046426859 -0.19168991 -0.0043031909 4278190080
0.043192849 -0.19171391 -0.0066015935 4278190080
0.046040863 -0.19190124 -0.0042951908 4278190080
0.046040863 -0.1919013 -0.0042951694 4278190080
0.042415377 -0.19172025 -0.0071678665 4278190080
0.051888864 -0.18626933 -0.0087439902 4278190080
0.048979186 -0.18850996 -0.0072885463 4278190080
0.047945879 -0.18898396 -0.0072708316 4278190080
0.046090629 -0.18993144 -0.0072350819 4278190080
0.048967384 -0.188979 -0.0066089183 4278190080
0.051863793 -0.18727019 -0.0073345844 4278190080
0.054810371 -0.18356027 -0.010894 4278190080
0.054800101 -0.18397115 -0.010324193 4278190080
0.054853097 -0.18185195 -0.013270209 4278190080
0.053967141 -0.18625821 -0.0073725712 4278190080
0.050830424 -0.18356872 -0.013206503 4278190080
0.049035143 -0.18627699 -0.010441428 4278190080
0.046141829 -0.18789509 -0.010177715 4278190080
0.049031701 -0.18641272 -0.010233668 4278190080
0.049312674 -0.18627472 -0.010238858 4278190080
0.05196945 -0.18304706 -0.013225996 4278190080
0.051956505 -0.18356438 -0.012504383 4278190080
0.043260943 -0.18902034 -0.010639546 4278190080
0.043903202 -0.18901362 -0.010135589 4278190080
0.04325179 -0.18938516 -0.010121447 4278190080
0.051965009 -0.1808545 -0.016175104 4278190080
0.052023944 -0.18085431 -0.016139444 4278190080
0.052024599 -0.18082814 -0.016176086 4278190080
0.051916808 -0.18514988 -0.01028065 4278190080
0.04611405 -0.18899681 -0.0085542407 4278190080
0.04510323 -0.18630078 -0.013104029 4278190080
0.043303993 -0.18730263 -0.013065964 4278190080
0.046194978 -0.1857688 -0.01312402 4278190080
0.049170908 -0.18087913 -0.018256366 4278190080
0.049133684 -0.18235959 -0.016118128 4278190080
0.049186528 -0.18024728 -0.019063866 4278190080
0.049103145 -0.18358108 -0.014422969 4278190080
0.046181824 -0.18629521 -0.012397017 4278190080
0.040412985 -0.18883832 -0.013007832 4278190080
0.049080644 -0.18448086 -0.013172028 4278190080
0.040054638 -0.18904746 -0.012999859 4278190080
0.040407822 -0.18904309 -0.012706077 4278190080
0.037555486 -0.18908598 -0.015264738 4278190080
0.037555501 -0.18908598 -0.015264682 4278190080
0.048881106 -0.17816614 -0.022008903 4278190080
0.046317991 -0.18090744 -0.02045848 4278190080
0.043350041 -0.18550475 -0.015998848 4278190080
0.046290413 -0.1820185 -0.018996106 4278190080
0.046348702 -0.17965434 -0.021952132 4278190080
0.046250187 -0.18360838 -0.016600322 4278190080
0.046240862 -0.1839785 -0.016056594 4278190080
0.043328978 -0.1863253 -0.014642451 4278190080
0.046384603 -0.17817664 -0.023586767 4278190080
0.046864413 -0.18360004 -0.016071066 4278190080
0.048165254 -0.18088938 -0.019039255 4278190080
0.040508226 -0.18509695 -0.018879553 4278190080
0.038255177 -0.18638673 -0.018830447 4278190080
0.037614118 -0.18677606 -0.018815562 4278190080
0.0376141 -0.18677612 -0.018815558 4278190080
0.043452099 -0.18144798 -0.021883458 4278190080
0.043393154 -0.18364199 -0.018934395 4278190080
0.043397538 -0.18363965 -0.018934483 4278190080
0.043397482 -0.18364196 -0.018931236 4278190080
0.044315025 -0.18092319 -0.021903526 4278190080
0.040476322 -0.1863597 -0.016993774 4278190080
0.03472057 -0.18842898 -0.018752638 4278190080
0.040458441 -0.1870679 -0.015939593 4278190080
0.041751392 -0.18634531 -0.015967056 4278190080
0.034703095 -0.18912677 -0.017772265 4278190080
0.03361392 -0.18914217 -0.018725257 4278190080
0.044419996 -0.17818679 -0.024874704 4278190080
0.044420101 -0.1781868 -0.024874685 4278190080
0.037565824 -0.18867789 -0.015878424 4278190080
0.037565809 -0.18867794 -0.015878424 4278190080
0.037666757 -0.18467312 -0.021760911 4278190080
0.037666742 -0.18467315 -0.021760909 4278190080
0.039568681 -0.18367635 -0.0217986 4278190080
0.034770932 -0.1864267 -0.021652021 4278190080
0.040558301 -0.18311274 -0.02182005 4278190080
0.04054448 -0.18366769 -0.021070533 4278190080
0.043516956 -0.17878014 -0.024851877 4278190080
0.04351696 -0.17878006 -0.024851903 4278190080
0.037623648 -0.18639405 -0.019343724 4278190080
0.037623663 -0.18639405 -0.01934365 4278190080
0.04353141 -0.17819802 -0.025619777 4278190080
0.043464821 -0.18092948 -0.022507474 4278190080
0.031873077 -0.18828306 -0.021622635 4278190080
0.035997026 -0.18371613 -0.024662182 4278190080
0.03599713 -0.18371615 -0.024662163 4278190080
0.037715588 -0.18274666 -0.024699049 4278190080
0.037715569 -0.18274671 -0.024699047 4278190080
0.037715584 -0.18274672 -0.024699029 4278190080
0.037715569 -0.18274677 -0.024699027 4278190080
0.031920552 -0.18641922 -0.024558216 4278190080
0.031920552 -0.18641928 -0.024558196 4278190080
0.031819403 -0.18648155 -0.024555832 4278190080
0.031819493 -0.18648155 -0.024555814 4278190080
0.031919021 -0.1864803 -0.024472423 4278190080
0.037691623 -0.18369749 -0.023309421 4278190080
0.037691638 -0.18369749 -0.023309354 4278190080
0.040632501 -0.17822194 -0.027738804 4278190080
0.040186733 -0.180951 -0.024768496 4278190080
0.040186822 -0.18095101 -0.024768477 4278190080
0.040678315 -0.17822143 -0.027701965 4278190080
0.040679161 -0.17818654 -0.027740177 4278190080
0.040618837 -0.18064488 -0.024780318 4278190080
0.040618837 -0.18064494 -0.024780298 4278190080
0.040611438 -0.18094559 -0.024411155 4278190080
0.034771662 -0.18639779 -0.021695055 4278190080
0.034723014 -0.18642738 -0.021693923 4278190080
0.034939226 -0.17964323 -0.030549312 4278190080
0.034906134 -0.18101481 -0.029123733 4278190080
0.031986468 -0.18377037 -0.028111354 4278190080
0.032589275 -0.18375947 -0.027525328 4278190080
0.034877513 -0.18216577 -0.02758681 4278190080
0.031975754 -0.18419789 -0.027508387 4278190080
0.036980815 -0.17826001 -0.030602584 4278190080
0.036682844 -0.18099226 -0.027631884 4278190080
0.03782573 -0.17825811 -0.030108677 4278190080
0.037825745 -0.17825811 -0.030108625 4278190080
0.037837971 -0.17774913 -0.030622091 4278190080
0.037837986 -0.17774907 -0.030622093 4278190080
0.037775353 -0.18031341 -0.027657881 4278190080
0.037775371 -0.18031336 -0.027657883 4278190080
0.029079001 -0.18599853 -0.02743943 4278190080
0.034838807 -0.18372759 -0.025555145 4278190080
0.037758928 -0.18098409 -0.026862932 4278190080
0.037758943 -0.18098409 -0.026862884 4278190080
0.037478909 -0.17553212 -0.033572774 4278190080
0.037479013 -0.1755321 -0.033572774 4278190080
0.02622883 -0.18597659 -0.030304365 4278190080
0.037892386 -0.17552808 -0.033255294 4278190080
0.037892371 -0.17552808 -0.03325535 4278190080
0.037892386 -0.17552806 -0.033255376 4278190080
0.037892371 -0.17552808 -0.033255428 4278190080
0.028364174 -0.18652384 -0.027419101 4278190080
0.029066227 -0.18651165 -0.026749071 4278190080
0.037898786 -0.17526826 -0.033582885 4278190080
0.037898801 -0.17526822 -0.033582889 4278190080
0.02621413 -0.18656051 -0.029453952 4278190080
0.034821559 -0.18442191 -0.024635216 4278190080
0.034821559 -0.18442197 -0.024635196 4278190080
0.030050661 -0.18108284 -0.033357762 4278190080
0.032090109 -0.17957258 -0.033416234 4278190080
0.029186066 -0.18171032 -0.033333499 4278190080
0.033578355 -0.17830345 -0.033465736 4278190080
0.035039511 -0.17555705 -0.035473876 4278190080
0.035039511 -0.17555706 -0.035473801 4278190080
0.0320534 -0.18104766 -0.031436957 4278190080
0.034999404 -0.17719185 -0.033508904 4278190080
0.035061043 -0.17467281 -0.036471259 4278190080
0.026281888 -0.18385845 -0.033284929 4278190080
0.026315305 -0.18385775 -0.033250313 4278190080
0.026281325 -0.18388042 -0.033249438 4278190080
0.034972508 -0.178278 -0.032105144 4278190080
0.023728436 -0.18391874 -0.036111429 4278190080
0.032035496 -0.18176655 -0.030467164 4278190080
0.023430467 -0.18392392 -0.036395606 4278190080
0.033070531 -0.18103118 -0.030495567 4278190080
0.023425441 -0.18412337 -0.036103547 4278190080
0.035106134 -0.17282647 -0.038607161 4278190080
0.029133959 -0.18378843 -0.030389164 4278190080
0.02911669 -0.18380138 -0.030388661 4278190080
0.029133644 -0.18380103 -0.030370731 4278190080
0.026457252 -0.17673916 -0.042119514 4278190080
0.027744051 -0.17567259 -0.042161059 4278190080
0.027744126 -0.17567258 -0.042161059 4278190080
0.026416263 -0.17842579 -0.040248919 4278190080
0.026482558 -0.17568703 -0.043182001 4278190080
0.026482558 -0.17568703 -0.043182068 4278190080
0.029335145 -0.17565052 -0.040779248 4278190080
0.029335145 -0.17565051 -0.040779326 4278190080
0.027562339 -0.1784073 -0.039190073 4278190080
0.029302495 -0.1769889 -0.039245274 4278190080
0.029367529 -0.17431298 -0.04221404 4278190080
0.024307963 -0.17845392 -0.042052858 4278190080
0.026391534 -0.17944685 -0.039149448 4278190080
0.023563767 -0.17846422 -0.042698674 4278190080
0.030971773 -0.1756254 -0.039298341 4278190080
0.030971862 -0.17562538 -0.039298341 4278190080
0.029268436 -0.17837884 -0.037590645 4278190080
0.02354764 -0.17913526 -0.042026222 4278190080
0.026522659 -0.1740458 -0.045088999 4278190080
0.026522657 -0.17404588 -0.04508907 4278190080
0.023950297 -0.17570759 -0.045025192 4278190080
0.023950208 -0.17570761 -0.045025192 4278190080
0.023950372 -0.17570759 -0.045025267 4278190080
0.023950282 -0.17570761 -0.045025267 4278190080
0.029401615 -0.1729161 -0.043818932 4278190080
0.023622598 -0.17600016 -0.045013759 4278190080
0.023622597 -0.17600024 -0.04501383 4278190080
0.023629606 -0.17571408 -0.045352973 4278190080
0.023629606 -0.17571406 -0.045353066 4278190080
0.028022699 -0.17293994 -0.045131803 4278190080
0.028022774 -0.17293994 -0.045131877 4278190080
0.031112965 -0.17288978 -0.042269427 4278190080
0.032213241 -0.17454103 -0.039340682 4278190080
0.02417233 -0.18118966 -0.03908176 4278190080
0.032187331 -0.17560382 -0.038127493 4278190080
0.032187331 -0.17560382 -0.038127415 4278190080
0.029240275 -0.1795349 -0.036281813 4278190080
0.02349738 -0.18120067 -0.039708555 4278190080
0.026349669 -0.18115705 -0.037132062 4278190080
0.030665908 -0.17835744 -0.036327664 4278190080
0.032253921 -0.17287251 -0.041243274 4278190080
0.023484301 -0.18173289 -0.039060652 4278190080
0.027289338 -0.18114008 -0.036219314 4278190080
0.026549539 -0.17296548 -0.046536375 4278190080
0.029429765 -0.17176624 -0.045177534 4278190080
0.029429764 -0.1717663 -0.045177605 4278190080
0.032150246 -0.17712294 -0.036375754 4278190080
0.032277621 -0.17189547 -0.042308211 4278190080
0.026330927 -0.1819181 -0.036189042 4278190080
0.020710565 -0.17848518 -0.044721294 4278190080
0.020715341 -0.17828694 -0.04492493 4278190080
0.020715339 -0.178287 -0.044925001 4278190080
0.020909417 -0.18123609 -0.041944563 4278190080
0.020470165 -0.17848799 -0.044917103 4278190080
0.020470232 -0.178488 -0.044917177 4278190080
0.020644855 -0.18123865 -0.042147018 4278190080
0.032120537 -0.17833006 -0.034888279 4278190080
0.020640448 -0.18141906 -0.041937515 4278190080
0.024931435 -0.17299007 -0.04799426 4278190080
0.023673907 -0.17395893 -0.047956668 4278190080
0.034253016 -0.1728407 -0.039406929 4278190080
0.034001391 -0.17557395 -0.036436114 4278190080
0.034001496 -0.17557393 -0.036436114 4278190080
0.029201314 -0.18109682 -0.034149274 4278190080
0.026582882 -0.17159228 -0.048048757 4278190080
0.031430241 -0.17015797 -0.045240078 4278190080
0.031430315 -0.17015798 -0.045240153 4278190080
0.032320525 -0.17014153 -0.044366568 4278190080
