# .PCD v0.7 - Point Cloud Data file format
VERSION 0.7
FIELDS x y z rgba label
SIZE 4 4 4 4 4
TYPE F F F U U
COUNT 1 1 1 1 1
WIDTH 441
HEIGHT 1
VIEWPOINT 0 0 0 1 0 0 0
POINTS 441
DATA ascii
0.21684642 0.050209425 0.068470068 4278190080 17378
0.21848862 0.05410061 0.071319044 4278190080 16876
0.21818657 0.056792375 0.072524823 4278190080 16512
0.21779527 0.053941365 0.071838103 4278190080 16752
0.21726407 0.050675966 0.069410279 4278190080 17316
0.21691197 0.050706349 0.069745995 4278190080 17233
0.21776125 0.056255642 0.072924182 4278190080 16444
0.21853901 0.053567335 0.071616866 4278190080 16859
0.21453054 0.048232071 0.06701231 4278190080 17528
0.21022709 0.048058473 0.062850691 4278190080 20393
0.21702771 0.051407296 0.071175702 4278190080 17021
0.21563025 0.048525404 0.067623653 4278190080 17487
0.21588545 0.049270086 0.069111064 4278190080 17353
0.21679394 0.051273108 0.067832895 4278190080 17370
0.21575408 0.050618999 0.06744878 4278190080 17412
0.2177642 0.053599421 0.06983804 4278190080 17035
0.21782796 0.056966655 0.071388625 4278190080 16621
0.21204486 0.049115326 0.064181447 4278190080 20098
0.21165183 0.048939951 0.063734062 4278190080 20074
0.21739475 0.057534583 0.072155647 4278190080 16432
0.2169475 0.050742961 0.068195954 4278190080 17373
0.21844581 0.054634187 0.07102377 4278190080 16883
0.21490608 0.049502198 0.067521267 4278190080 17426
0.21208152 0.048424885 0.06440299 4278190080 20019
0.21905789 0.056217153 0.071467213 4278190080 16698
0.21881585 0.060863033 0.071757272 4278190080 16339
0.21711068 0.050940271 0.069202922 4278190080 17299
0.21180037 0.048267677 0.063985057 4278190080 20030
0.21892519 0.06113255 0.071663976 4278190080 16371
0.21722655 0.056046005 0.070535585 4278190080 16741
0.21880592 0.0602975 0.070386991 4278190080 16532
0.218603 0.066124141 0.067368008 4278190080 16583
0.21793437 0.059383161 0.071135931 4278190080 16489
0.21750402 0.059090439 0.071419179 4278190080 16459
0.21884923 0.060035761 0.070534848 4278190080 16582
0.21626161 0.053503599 0.069766894 4278190080 17006
0.2187807 0.059767645 0.070645884 4278190080 16554
0.2176024 0.054128025 0.069494314 4278190080 17065
0.21831933 0.063974909 0.070046298 4278190080 16368
0.21453685 0.051171675 0.065689981 4278190080 17475
0.21842703 0.063712053 0.068524681 4278190080 16546
0.214158 0.051069632 0.066344 4278190080 17430
0.21790799 0.063285396 0.069472618 4278190080 16447
0.21713445 0.055361316 0.069727488 4278190080 16954
0.21795383 0.064601421 0.068833023 4278190080 16466
0.21468158 0.050275151 0.065187149 4278190080 17610
0.21848762 0.065578751 0.067602463 4278190080 16538
0.2180825 0.064350419 0.069004148 4278190080 16452
0.21373466 0.050078556 0.06565091 4278190080 17542
0.21685386 0.058359228 0.066937596 4278190080 17038
0.21562189 0.05543502 0.066573031 4278190080 17224
0.21398856 0.05274735 0.064575016 4278190080 17482
0.2163914 0.058093879 0.067662679 4278190080 16916
0.2136946 0.052894402 0.065118261 4278190080 17433
0.21571417 0.055174585 0.066755414 4278190080 17231
0.21714313 0.062169634 0.06731274 4278190080 16753
0.21772847 0.061455611 0.067535736 4278190080 16882
0.21581994 0.053638406 0.066109903 4278190080 17377
0.21113433 0.050940786 0.062963523 4278190080 19994
0.21763878 0.064430021 0.066711545 4278190080 16722
0.21669468 0.057466049 0.068450466 4278190080 16905
0.21722107 0.05976909 0.068592452 4278190080 16746
0.21771877 0.065244965 0.066318966 4278190080 16711
0.21417923 0.051406231 0.064638913 4278190080 17585
0.21802832 0.062854677 0.067665897 4278190080 16706
0.2156186 0.053556561 0.06715972 4278190080 17292
0.21666875 0.056516983 0.068600461 4278190080 16965
0.21600591 0.053114116 0.066481136 4278190080 17395
0.21182926 0.050474379 0.063700274 4278190080 20039
0.21726221 0.058971535 0.069023132 4278190080 16797
0.20683382 0.051249407 0.059648387 4278190080 20382
0.20837863 0.050514493 0.061480869 4278190080 20420
0.20894577 0.050388455 0.062073123 4278190080 20337
0.21795709 0.058631655 0.068751603 4278190080 16800
0.21578829 0.053297628 0.067369819 4278190080 17311
0.21586968 0.055070754 0.068778716 4278190080 16989
0.21781968 0.065415263 0.067097843 4278190080 16623
0.21617702 0.052853934 0.0666935 4278190080 17393
0.21183299 0.050126784 0.063807175 4278190080 19965
0.21808799 0.063313469 0.068260737 4278190080 16609
0.21808769 0.063047834 0.068395436 4278190080 16597
0.20696346 0.050713506 0.060238674 4278190080 20365
0.21772346 0.066203855 0.066663131 4278190080 16619
0.21732919 0.067894191 0.064809427 4278190080 16694
0.21624082 0.060360633 0.066748448 4278190080 16932
0.21683104 0.064870588 0.065421596 4278190080 16850
0.21653245 0.064790688 0.065725826 4278190080 16780
0.2154595 0.055214364 0.065064922 4278190080 17374
0.21685787 0.064604424 0.065570831 4278190080 16821
0.21670985 0.066472687 0.064537868 4278190080 16826
0.21639398 0.066652834 0.064704977 4278190080 16766
0.21715094 0.062868521 0.066240244 4278190080 16857
0.21705286 0.063817322 0.066053838 4278190080 16847
0.21678481 0.06374453 0.066362321 4278190080 16796
0.21126167 0.053396892 0.062255479 4278190080 19972
0.21533154 0.05626861 0.064406283 4278190080 17381
0.20669544 0.052814867 0.055265214 4278190080 20878
0.21670839 0.061555915 0.065155536 4278190080 17078
0.20823973 0.052081682 0.060542986 4278190080 20434
0.21589312 0.060714047 0.06609112 4278190080 16972
0.2066748 0.052465919 0.055381838 4278190080 20933
0.20689757 0.051945765 0.056007497 4278190080 20957
0.21561842 0.059277464 0.066414237 4278190080 17013
0.20693164 0.051606182 0.059559032 4278190080 20368
0.21553215 0.055483248 0.064934537 4278190080 17392
0.20470992 0.05608391 0.050757125 4278190080 21249
0.21496893 0.058368199 0.063056096 4278190080 17372
0.21026509 0.05391717 0.059119057 4278190080 20222
0.2151272 0.059636492 0.063987769 4278190080 17225
0.21501191 0.058105856 0.063223965 4278190080 17386
0.20843297 0.053762361 0.055607095 4278190080 20566
0.21526976 0.061896943 0.064872764 4278190080 17024
0.21488491 0.057566755 0.06349206 4278190080 17365
0.21024773 0.053907461 0.060658202 4278190080 20029
0.21575961 0.06351354 0.064899251 4278190080 16938
0.21398769 0.057422627 0.064345889 4278190080 17296
0.21433845 0.057117216 0.064018361 4278190080 17339
0.21017495 0.053547636 0.06074588 4278190080 20063
0.21650714 0.062341679 0.064658575 4278190080 17066
0.20507996 0.056297764 0.051154699 4278190080 21234
0.20498802 0.05523973 0.052518621 4278190080 21165
0.20625912 0.053852607 0.054019656 4278190080 20867
0.2140484 0.057164609 0.064516455 4278190080 17314
0.21575117 0.062182035 0.06560415 4278190080 16974
0.20503761 0.054906562 0.052649088 4278190080 21164
0.21660025 0.066039056 0.064379744 4278190080 16818
0.21179494 0.05420069 0.062560588 4278190080 19929
0.21558112 0.059786584 0.065350115 4278190080 17121
0.21475133 0.059678651 0.062216483 4278190080 17376
0.20980819 0.05509869 0.058231782 4278190080 20192
0.21534283 0.064650461 0.063800804 4278190080 16923
0.2085402 0.054662813 0.056238417 4278190080 20492
0.21542732 0.063504547 0.064060397 4278190080 17012
0.20959665 0.054593138 0.057954043 4278190080 20146
0.20783669 0.054624304 0.055297341 4278190080 20502
0.2117122 0.056066096 0.061252724 4278190080 19811
0.216516 0.064488947 0.063499473 4278190080 17070
0.20859817 0.054327771 0.056366328 4278190080 20516
0.21553959 0.063606329 0.064426422 4278190080 16985
0.21387964 0.057682104 0.062672846 4278190080 17404
0.21613581 0.068673655 0.062831298 4278190080 16867
0.21559018 0.064029261 0.064564183 4278190080 16983
0.21046539 0.054989874 0.060394064 4278190080 20085
0.21370111 0.058450509 0.063650377 4278190080 17294
0.21089435 0.055188078 0.060841385 4278190080 20028
0.21182394 0.057846263 0.060778573 4278190080 19819
0.21001972 0.056293894 0.058733728 4278190080 19969
0.20850064 0.055347972 0.055998422 4278190080 20480
0.20928302 0.055451203 0.057213645 4278190080 20221
0.21458085 0.061445259 0.062755078 4278190080 17243
0.20494305 0.056607824 0.052021641 4278190080 21189
0.21621357 0.065798745 0.062682845 4278190080 17048
0.20599017 0.055735298 0.05290781 4278190080 20959
0.20429584 0.05744753 0.050409764 4278190080 21167
0.20939417 0.056511763 0.056906987 4278190080 20134
0.20991044 0.056507345 0.057812806 4278190080 20198
0.20777982 0.055993222 0.05482357 4278190080 20510
0.20988518 0.056039236 0.056630243 4278190080 20252
0.21556991 0.067616194 0.06230405 4278190080 16925
0.21034347 0.056366391 0.058362674 4278190080 20139
0.21533626 0.065358825 0.063025236 4278190080 17005
0.21588488 0.068886131 0.062087785 4278190080 16930
0.21363139 0.066568725 0.058298174 4278190080 17352
0.21080123 0.060828 0.057362631 4278190080 19869
0.21008743 0.060144272 0.05644447 4278190080 20067
0.20969389 0.059703905 0.0559741 4278190080 20218
0.21395421 0.066675924 0.059532657 4278190080 17238
0.20997596 0.0595374 0.056487184 4278190080 20136
0.2093858 0.059168059 0.055679105 4278190080 20169
0.21373272 0.064193517 0.059708364 4278190080 17348
0.21345457 0.062938496 0.059465155 4278190080 17401
0.21539822 0.070043504 0.057569992 4278190080 17306
0.20993607 0.059179507 0.056589797 4278190080 20157
0.21486622 0.071192786 0.057635538 4278190080 17217
0.21011615 0.059218068 0.05711389 4278190080 20073
0.21469882 0.066597901 0.060164656 4278190080 17219
0.20991617 0.058826376 0.056696631 4278190080 20179
0.2101537 0.058997549 0.057090219 4278190080 20172
0.21489118 0.07031431 0.058870085 4278190080 17163
0.20753032 0.058358178 0.053964499 4278190080 20521
0.21009372 0.058864132 0.057215851 4278190080 20109
0.21050912 0.059070732 0.057651579 4278190080 20017
0.20985015 0.058120657 0.055944998 4278190080 20267
0.21389861 0.073654912 0.056687515 4278190080 17160
0.21106958 0.059351757 0.058616057 4278190080 19864
0.21411756 0.06374041 0.060747802 4278190080 17304
0.20848989 0.057898466 0.055525519 4278190080 20473
0.21086583 0.058914375 0.058183037 4278190080 20072
0.21528268 0.072616115 0.056982733 4278190080 17214
0.21412629 0.063477099 0.060902819 4278190080 17313
0.21514235 0.069684118 0.060198437 4278190080 17081
0.21522646 0.069428198 0.060366899 4278190080 17044
0.2151861 0.068885781 0.060646128 4278190080 17045
0.21523966 0.070774034 0.059643138 4278190080 17042
0.21025427 0.058316488 0.057807554 4278190080 20114
0.21191774 0.060038384 0.059825554 4278190080 19684
0.21512082 0.069072574 0.060940128 4278190080 16995
0.21527182 0.071856722 0.059068561 4278190080 17067
0.21436256 0.074356087 0.056169976 4278190080 17171
0.2135489 0.075312883 0.054626707 4278190080 19238
0.20919563 0.057045165 0.056303129 4278190080 20189
0.21407674 0.062416591 0.061496872 4278190080 17298
0.21547325 0.067048967 0.06174257 4278190080 17064
0.20615296 0.057151083 0.052453142 4278190080 20934
0.21005014 0.057231899 0.057622489 4278190080 20213
0.21504182 0.063695878 0.061922733 4278190080 17209
0.21021481 0.057377513 0.058460027 4278190080 19968
0.21139103 0.058236867 0.059782773 4278190080 19851
0.2121866 0.06616158 0.057002928 4278190080 19524
0.21035425 0.061908484 0.056171816 4278190080 19933
0.21194345 0.064716354 0.057524521 4278190080 19680
0.20958838 0.060607176 0.05527683 4278190080 20127
0.21089558 0.062258888 0.05697906 4278190080 19846
0.21213391 0.064913586 0.058030892 4278190080 19516
0.21393335 0.072002508 0.056472775 4278190080 17242
0.20668308 0.058623131 0.052864507 4278190080 20847
0.21176957 0.063603282 0.057757534 4278190080 19697
0.20948768 0.059886951 0.055478349 4278190080 20147
0.21336161 0.074986145 0.055015646 4278190080 19258
0.2134615 0.071430854 0.057749771 4278190080 17156
0.21126324 0.067243226 0.054817092 4278190080 19679
0.21161547 0.06893824 0.055046197 4278190080 19565
0.21173444 0.070049554 0.054807983 4278190080 19540
0.2118317 0.070797801 0.054652553 4278190080 19624
0.21228564 0.072973974 0.053039763 4278190080 19385
0.20957839 0.062931582 0.054152261 4278190080 20123
0.20919181 0.062263153 0.053655624 4278190080 20268
0.20969144 0.063172124 0.054496162 4278190080 19847
0.21239477 0.073997237 0.052462909 4278190080 19362
0.21244389 0.074548945 0.051609337 4278190080 19360
0.21183942 0.068381086 0.055617776 4278190080 19628
0.21255243 0.07521461 0.051113166 4278190080 19381
0.21262704 0.074700199 0.051993702 4278190080 19364
0.2126562 0.074172035 0.052864213 4278190080 19391
0.21159042 0.066105269 0.055948138 4278190080 19690
0.21193673 0.067788318 0.05616143 4278190080 19570
0.20598619 0.059277177 0.050896473 4278190080 20941
0.20804469 0.060680535 0.053707398 4278190080 20471
0.21142839 0.065349169 0.056095179 4278190080 19706
0.21278164 0.072415181 0.054784536 4278190080 19395
0.21288542 0.073075511 0.054292411 4278190080 19384
0.20981441 0.062058385 0.054877296 4278190080 20201
0.20944698 0.061501898 0.054572262 4278190080 20166
0.21016373 0.062806435 0.055483781 4278190080 19883
0.21015178 0.062029216 0.055128977 4278190080 20118
0.20415959 0.058661312 0.049560864 4278190080 21169
0.20624849 0.058962081 0.051867042 4278190080 20835
0.20442757 0.058419399 0.048826542 4278190080 21385
0.20329812 0.058700651 0.046973642 4278190080 21508
0.2039652 0.058391307 0.047966287 4278190080 21343
0.2072632 0.061961349 0.051161032 4278190080 20524
0.20746984 0.062135186 0.051537879 4278190080 20483
0.21097517 0.068646304 0.053258285 4278190080 19654
0.21015635 0.066461533 0.053677361 4278190080 19941
0.20471765 0.0603108 0.049491279 4278190080 21198
0.21142681 0.070745729 0.053437851 4278190080 19510
0.21145403 0.071473375 0.053266313 4278190080 19636
0.20757608 0.061589405 0.052130725 4278190080 20508
0.21194187 0.076445632 0.047703985 4278190080 19401
0.21184109 0.076681904 0.047252763 4278190080 19373
0.21134873 0.069743253 0.05403246 4278190080 19620
0.20955509 0.063857332 0.053469922 4278190080 20149
0.21208589 0.076047741 0.048944257 4278190080 19352
0.209646 0.06410367 0.053840831 4278190080 19829
0.20426114 0.059375014 0.049330708 4278190080 21187
0.21117602 0.077526674 0.043934412 4278190080 19379
0.20597975 0.068966433 0.042804521 4278190080 20725
0.20571937 0.068188861 0.043011207 4278190080 20699
0.20591339 0.067794591 0.043953203 4278190080 20750
0.20669493 0.068935402 0.044371344 4278190080 20548
0.20558332 0.068599969 0.042077288 4278190080 20702
0.2064627 0.069777541 0.042505354 4278190080 20646
0.20683488 0.068520918 0.045308545 4278190080 20570
0.20551148 0.067519419 0.042578962 4278190080 20824
0.20655404 0.067738608 0.045505177 4278190080 20617
0.20658623 0.070043877 0.04205947 4278190080 20544
0.20553689 0.067972884 0.041656911 4278190080 20826
0.20451148 0.06686265 0.04206679 4278190080 21127
0.20628855 0.06687697 0.045498483 4278190080 20747
0.20448725 0.066291161 0.042652842 4278190080 21033
0.20780694 0.069839552 0.045373037 4278190080 20406
0.20768303 0.06922508 0.045932427 4278190080 20348
0.20548426 0.066051155 0.045005102 4278190080 20806
0.2064195 0.066688485 0.045976259 4278190080 20712
0.20564283 0.069646515 0.040586002 4278190080 20765
0.20428911 0.066359214 0.041828588 4278190080 21184
0.20540933 0.065682508 0.04511622 4278190080 20800
0.20429952 0.065487072 0.043688092 4278190080 21181
0.20425953 0.066569 0.041361183 4278190080 21156
0.20433815 0.065279923 0.044156637 4278190080 21197
0.20554024 0.068991579 0.04014726 4278190080 20819
0.20553559 0.065496676 0.045593247 4278190080 20829
0.20574811 0.065682605 0.045961738 4278190080 20794
0.2041969 0.065110788 0.043800801 4278190080 21172
0.20803292 0.069223553 0.046783607 4278190080 20374
0.20443203 0.06771221 0.04020064 4278190080 21049
0.20799214 0.069008566 0.046957344 4278190080 20246
0.20478679 0.064942025 0.045132335 4278190080 21041
0.20415157 0.066363879 0.040825181 4278190080 21324
0.20887099 0.071570031 0.045025941 4278190080 20100
0.20817219 0.072874211 0.043801155 4278190080 19898
0.20897715 0.07136447 0.04549462 4278190080 20103
0.20581093 0.065130539 0.046552289 4278190080 20817
0.20417656 0.06682191 0.039902315 4278190080 21299
0.20850158 0.072292477 0.042819958 4278190080 20083
0.20587212 0.070872486 0.039448503 4278190080 20721
0.20545083 0.070265979 0.039187811 4278190080 20789
0.20905796 0.07091295 0.046413038 4278190080 20095
0.20861425 0.072499625 0.045888595 4278190080 19845
0.20418316 0.066437759 0.039845992 4278190080 21360
0.20561555 0.070667706 0.039083552 4278190080 20757
0.20841731 0.070756882 0.04784428 4278190080 19820
0.20841837 0.072521634 0.04201695 4278190080 20150
0.20533083 0.070105605 0.038836215 4278190080 20766
0.20804787 0.068334684 0.048331883 4278190080 20321
0.20820202 0.073263235 0.042570706 4278190080 19831
0.20411056 0.067921489 0.038905777 4278190080 21070
0.20787182 0.067794807 0.048369985 4278190080 20419
0.20870441 0.072637506 0.046245053 4278190080 19894
0.20870522 0.072882548 0.045798715 4278190080 19806
0.2041495 0.063749656 0.044415493 4278190080 21304
0.20780718 0.067427263 0.048476681 4278190080 20455
0.20589048 0.064583063 0.047145255 4278190080 20832
0.20843603 0.068916664 0.048621248 4278190080 20313
0.20628345 0.06489186 0.04753796 4278190080 20670
0.20861578 0.073724702 0.043654427 4278190080 19810
0.20411851 0.066864736 0.038916066 4278190080 21381
0.20885564 0.073666275 0.044479392 4278190080 19876
0.2042938 0.067536317 0.03852161 4278190080 21308
0.20388582 0.066439755 0.039022777 4278190080 21347
0.20846695 0.069581628 0.048945956 4278190080 19815
0.20863634 0.07068906 0.048667319 4278190080 19872
0.20302536 0.063978411 0.041811883 4278190080 21652
0.20723835 0.071996778 0.039338958 4278190080 20308
0.20517108 0.070159063 0.038022511 4278190080 20729
0.20396276 0.063187711 0.04400732 4278190080 21344
0.20388274 0.066662654 0.038560368 4278190080 21340
0.20761599 0.072586097 0.039601684 4278190080 20235
0.20418113 0.067723364 0.038052574 4278190080 21302
0.20286155 0.063578993 0.041918579 4278190080 21591
0.20291686 0.06506481 0.039493419 4278190080 21696
0.20912753 0.072254889 0.048339184 4278190080 19817
0.20465095 0.063240223 0.046886064 4278190080 21174
0.20917483 0.074371614 0.043971583 4278190080 19866
0.20271727 0.06318672 0.042026449 4278190080 21626
0.20429498 0.068691626 0.037420366 4278190080 21222
0.2079636 0.07304839 0.039520159 4278190080 20251
0.20246693 0.064223848 0.039704543 4278190080 21633
0.20920813 0.071790062 0.049245905 4278190080 19844
0.20731175 0.065324128 0.049435306 4278190080 20395
0.2087741 0.068482235 0.05009295 4278190080 19897
0.20423914 0.068896115 0.036953699 4278190080 21252
0.20256513 0.062568747 0.042594414 4278190080 21695
0.2095391 0.073697597 0.047649577 4278190080 19900
0.20869242 0.067947827 0.050147265 4278190080 20334
0.20228401 0.063595451 0.040272139 4278190080 21586
0.20918579 0.07118421 0.049790945 4278190080 19824
0.203153 0.066218108 0.037569612 4278190080 21527
0.20964736 0.073485844 0.0481162 4278190080 19910
0.20230015 0.064047739 0.039352842 4278190080 21608
0.20219599 0.062552832 0.041764088 4278190080 21690
0.2021326 0.062978789 0.040840328 4278190080 21580
0.20817941 0.0666245 0.050369907 4278190080 20409
0.20898001 0.06865073 0.050472219 4278190080 19912
0.2070567 0.072511919 0.037610747 4278190080 20294
0.20756432 0.065166928 0.049933318 4278190080 20407
0.20798349 0.073550075 0.038540024 4278190080 20216
0.20316993 0.066448241 0.037107855 4278190080 21512
0.2043301 0.069496624 0.036373232 4278190080 21226
0.2071007 0.064207137 0.049493279 4278190080 20620
0.20452631 0.061925098 0.046659481 4278190080 21316
0.2043432 0.061838809 0.046475761 4278190080 21335
0.20954782 0.071759515 0.050096691 4278190080 19818
0.20781015 0.065355152 0.050315235 4278190080 20373
0.20492899 0.070638128 0.036285974 4278190080 20784
0.20201004 0.062149633 0.041868463 4278190080 21602
0.20880534 0.07504271 0.040298354 4278190080 19938
0.20850089 0.074722439 0.039575912 4278190080 19948
0.20871507 0.074902959 0.039943844 4278190080 19931
0.20257998 0.065036483 0.037524365 4278190080 21670
0.20958106 0.070814624 0.050755519 4278190080 19795
0.20692712 0.072581969 0.036802389 4278190080 20289
0.20303176 0.061129797 0.044717286 4278190080 21674
0.20213112 0.061398663 0.042914309 4278190080 21677
0.20260446 0.065268733 0.03706428 4278190080 21620
0.21071871 0.074831843 0.046670552 4278190080 19615
0.20193642 0.063909292 0.03819127 4278190080 21646
0.20434947 0.0699495 0.035446104 4278190080 21236
0.20602277 0.062022742 0.048785925 4278190080 20888
0.20988461 0.071016185 0.051156238 4278190080 19814
0.21036224 0.075910762 0.042595655 4278190080 19582
0.20247477 0.065103941 0.036716763 4278190080 21599
0.20947088 0.067951798 0.051556069 4278190080 19891
0.20380934 0.068205297 0.035321161 4278190080 21331
0.20413381 0.061152685 0.047897883 4278190080 21192
0.20156281 0.063100651 0.038408525 4278190080 21630
0.20138966 0.061813943 0.040346257 4278190080 21587
0.21028325 0.076051652 0.041798003 4278190080 19585
0.20141235 0.062265344 0.039433133 4278190080 21658
0.20246334 0.065323807 0.03625562 4278190080 21581
0.21111609 0.075607188 0.046170779 4278190080 19406
0.20983464 0.068872362 0.051763896 4278190080 19827
0.20940128 0.067227021 0.051747318 4278190080 19904
0.21084593 0.076230928 0.044479307 4278190080 19424
0.20228444 0.064918831 0.036367688 4278190080 21698
0.21104652 0.076121859 0.045291621 4278190080 19433
0.20121709 0.061417539 0.040452614 4278190080 21594
0.21083565 0.076496348 0.044043399 4278190080 19435
0.20904806 0.066303402 0.051921755 4278190080 20275
0.20864968 0.07551083 0.038241543 4278190080 19934
0.20125148 0.060984831 0.041368295 4278190080 21634
0.21040855 0.076455548 0.041722097 4278190080 19618
0.21105278 0.074439779 0.0490827 4278190080 19599
0.2024471 0.065541998 0.035794381 4278190080 21707
0.21003257 0.069039427 0.052145928 4278190080 19916
0.20295277 0.066630892 0.035110429 4278190080 21593
0.21016237 0.076443061 0.04055516 4278190080 19515
0.2063531 0.061859217 0.050123807 4278190080 20793
0.20107444 0.061474472 0.039648257 4278190080 21598
0.20102547 0.061237443 0.04010142 4278190080 21616
0.20281333 0.059802938 0.045513719 4278190080 21642
0.20773339 0.063245334 0.051233985 4278190080 20472
0.20968124 0.076351471 0.039363731 4278190080 19633
0.2115926 0.075680822 0.04737936 4278190080 19445
0.21135831 0.076336488 0.046477195 4278190080 19366
0.20543291 0.072180286 0.034698393 4278190080 20749
0.20161924 0.059868857 0.043343019 4278190080 21641
0.21122056 0.073701493 0.05042515 4278190080 19596
0.20176767 0.063938335 0.036244418 4278190080 21618
0.2020115 0.059809897 0.042327594 4278190080 21742
0.20257331 0.066033065 0.034876291 4278190080 21592
0.2044311 0.0604527 0.048987065 4278190080 21202
0.20475695 0.060666606 0.049374036 4278190080 21193
0.211391 0.076962508 0.045171142 4278190080 19466
0.20937388 0.076414809 0.038543463 4278190080 19584
0.20994121 0.067243099 0.052640673 4278190080 19885
0.21113753 0.072788194 0.051371299 4278190080 19532
0.2094577 0.065943725 0.052508704 4278190080 19877
0.20717081 0.061908524 0.050658926 4278190080 20555
0.2117244 0.075743645 0.04818486 4278190080 19394
0.21157013 0.076768279 0.046426058 4278190080 19369
