# .PCD v0.7 - Point Cloud Data file format
VERSION 0.7
FIELDS x y z rgb
SIZE 4 4 4 4
TYPE F F F U
COUNT 1 1 1 1
WIDTH 159
HEIGHT 1
VIEWPOINT 0 0 0 1 0 0 0
POINTS 159
DATA ascii
-0.014791891 -0.18933447 -0.079638705 4278190080
-0.01479191 -0.18933444 -0.079638764 4278190080
-0.0069812089 -0.18492642 -0.080105826 4278190080
-0.0069812909 -0.18492641 -0.080105804 4278190080
-0.016380157 -0.19261122 -0.079779245 4278190080
-0.0029060207 -0.18770117 -0.077654406 4278190080
-0.0029060394 -0.18770115 -0.077654466 4278190080
0.00089846551 -0.19033918 -0.076542512 4278190080
-0.0033179782 -0.18647571 -0.078334227 4278190080
-0.012102086 -0.18815055 -0.079690546 4278190080
0.00052112341 -0.18897125 -0.076837435 4278190080
-0.0095502175 -0.18649262 -0.079884857 4278190080
-0.014126226 -0.18925546 -0.079484612 4278190080
-0.014126375 -0.18925551 -0.079484582 4278190080
-0.014629267 -0.18994141 -0.079534829 4278190080
7.2244555e-05 -0.18729997 -0.077129483 4278190080
7.2225928e-05 -0.18729994 -0.077129528 4278190080
-0.0020961165 -0.19072336 -0.077136457 4278190080
-0.0088199079 -0.18854818 -0.078523487 4278190080
-0.0088199265 -0.18854815 -0.078523546 4278190080
-0.014020614 -0.19231637 -0.079284176 4278190080
-0.0058481134 -0.18825062 -0.078173891 4278190080
-0.0058482029 -0.18825059 -0.078173853 4278190080
-0.0058887415 -0.18809783 -0.078197822 4278190080
-0.0058887601 -0.1880978 -0.078197882 4278190080
-0.005888667 -0.18809782 -0.078197852 4278190080
-0.0058886856 -0.18809779 -0.078197919 4278190080
-0.0057176314 -0.1880765 -0.078161791 4278190080
-0.0057174638 -0.18807644 -0.078161821 4278190080
-0.00094260648 -0.19058098 -0.076888375 4278190080
-0.011800934 -0.18894649 -0.079060122 4278190080
-0.011800952 -0.18894646 -0.079060175 4278190080
-0.015704829 -0.19527116 -0.080594547 4278190080
0.0021379497 -0.19598693 -0.077115595 4278190080
0.0015325248 -0.19317797 -0.07676851 4278190080
-0.0080267414 -0.19155291 -0.078076363 4278190080
-0.0090742223 -0.19169417 -0.078260429 4278190080
-0.013540883 -0.19499421 -0.080163017 4278190080
-0.011024226 -0.19193406 -0.078682609 4278190080
-0.0015341192 -0.193487 -0.077667296 4278190080
-0.0051010661 -0.19109684 -0.077773914 4278190080
-0.0051009953 -0.19109683 -0.077773958 4278190080
-0.0010935962 -0.1934372 -0.077556804 4278190080
-0.0082615465 -0.19065389 -0.078196026 4278190080
-0.015035477 -0.19793253 -0.081408784 4278190080
-0.0084007047 -0.19717489 -0.079770677 4278190080
-0.01001111 -0.1973457 -0.080213308 4278190080
-0.0039540157 -0.19664818 -0.078738034 4278190080
-0.0039539449 -0.19664815 -0.078738078 4278190080
-0.0074597076 -0.1943218 -0.078585893 4278190080
-0.0090147518 -0.1945004 -0.078966267 4278190080
-0.00092692301 -0.19903834 -0.078976959 4278190080
-0.011906832 -0.20323101 -0.081975192 4278190080
-0.012546208 -0.20038666 -0.081771702 4278190080
-0.00040949136 -0.19901498 -0.078726247 4278190080
-0.010514311 -0.19464338 -0.079433776 4278190080
-0.0012966916 -0.19630581 -0.078215972 4278190080
-0.0045410506 -0.19385841 -0.078313142 4278190080
-0.0045409799 -0.1938584 -0.078313179 4278190080
-0.013050199 -0.19768348 -0.080995515 4278190080
-0.00095324963 -0.19627033 -0.07811828 4278190080
-0.0011905059 -0.19515002 -0.07795614 4278190080
-0.0065336563 -0.19964267 -0.080484867 4278190080
-0.0072656982 -0.19972566 -0.080667682 4278190080
0.0010600388 -0.20171426 -0.074067838 4278190080
-0.0035172589 -0.19928122 -0.079798669 4278190080
-0.0035171919 -0.19928119 -0.079798721 4278190080
0.00034603104 -0.2006449 -0.076654643 4278190080
0.00034602731 -0.20064488 -0.076654665 4278190080
-0.0095436536 -0.20001078 -0.081144065 4278190080
0.0017997473 -0.20292193 -0.071521178 4278190080
-0.0069633722 -0.19701697 -0.079394467 4278190080
-0.011017408 -0.20633614 -0.081120893 4278190080
-0.0087919831 -0.20318785 -0.081160501 4278190080
-0.011117179 -0.20606545 -0.08132042 4278190080
-0.0085081235 -0.20284115 -0.081142113 4278190080
-0.011375837 -0.20634271 -0.081327647 4278190080
-0.0088778175 -0.20288271 -0.081235625 4278190080
-0.0030118935 -0.20073868 -0.078903429 4278190080
-0.0030118115 -0.20073868 -0.078903452 4278190080
-0.0042020679 -0.21073268 -0.072028406 4278190080
-0.0042020194 -0.21073264 -0.072028406 4278190080
-0.0054893494 -0.21022005 -0.074616998 4278190080
-0.0054893158 -0.21022001 -0.074616998 4278190080
-0.0044607408 -0.20715535 -0.074104562 4278190080
-0.0032337755 -0.20743929 -0.07234183 4278190080
-0.0058032759 -0.21095142 -0.07472311 4278190080
-0.0029653832 -0.20806016 -0.071661822 4278190080
-0.0061466545 -0.21008621 -0.075498439 4278190080
-0.0061466843 -0.21008615 -0.075498544 4278190080
-0.0027888231 -0.2075766 -0.071584336 4278190080
-0.0038849711 -0.20588471 -0.073927388 4278190080
-0.0049214885 -0.2129235 -0.072398469 4278190080
-0.0068262368 -0.20821977 -0.076827131 4278190080
-0.0068262517 -0.20821971 -0.076827139 4278190080
-0.0062511303 -0.20676222 -0.076603726 4278190080
-0.0062511675 -0.20676222 -0.07660374 4278190080
-0.0026805587 -0.21118969 -0.069481432 4278190080
-0.0026805177 -0.21118964 -0.069481432 4278190080
-0.0074394867 -0.20986484 -0.07708776 4278190080
-0.00743955 -0.20986488 -0.077087753 4278190080
-0.0074395277 -0.20986485 -0.077087775 4278190080
-0.007439591 -0.2098649 -0.077087775 4278190080
-0.0052084327 -0.21379209 -0.072544783 4278190080
-0.0021014512 -0.20993616 -0.069309264 4278190080
-0.0072611123 -0.21346126 -0.074997336 4278190080
-0.0045177974 -0.21396251 -0.071516082 4278190080
-0.003349565 -0.20407103 -0.073606811 4278190080
-0.0014301315 -0.20807229 -0.069008425 4278190080
-0.0020977929 -0.20459211 -0.071011901 4278190080
-0.0084783733 -0.21333924 -0.076196469 4278190080
-0.0074607469 -0.20653816 -0.078149207 4278190080
-0.0047563016 -0.20396885 -0.076268345 4278190080
-0.0047563128 -0.20396882 -0.07626836 4278190080
-0.0035242811 -0.21421045 -0.070026726 4278190080
-0.0089429617 -0.21221903 -0.077312857 4278190080
-0.0089429505 -0.21221907 -0.077312842 4278190080
-0.0045377761 -0.20353486 -0.076213032 4278190080
-0.0045377463 -0.20353486 -0.07621301 4278190080
-0.0079487786 -0.21479584 -0.075163834 4278190080
-0.0014867373 -0.21143885 -0.067859545 4278190080
-0.0014867187 -0.21143889 -0.067859478 4278190080
-0.0050366595 -0.20338146 -0.077060357 4278190080
-0.00087270141 -0.20393157 -0.071138561 4278190080
-0.00087261945 -0.20393156 -0.071138583 4278190080
-0.0081757195 -0.20640096 -0.079079047 4278190080
-0.0077999718 -0.20575298 -0.079008095 4278190080
-0.0098247305 -0.21325181 -0.077359051 4278190080
-0.0098247826 -0.21325183 -0.077359065 4278190080
-0.00035718828 -0.20475452 -0.069338806 4278190080
-0.00035712868 -0.20475447 -0.06933891 4278190080
-0.0015486442 -0.20306702 -0.073784873 4278190080
-0.0015485585 -0.20306702 -0.073784888 4278190080
-4.7791749e-05 -0.20559762 -0.068725035 4278190080
-4.7702342e-05 -0.20559767 -0.068725064 4278190080
-0.003844969 -0.21594332 -0.070378125 4278190080
-0.0099211559 -0.20965698 -0.079391658 4278190080
-0.0099211819 -0.20965694 -0.079391748 4278190080
-0.00090865791 -0.21158721 -0.066978976 4278190080
-0.00090863183 -0.21158718 -0.066978976 4278190080
-0.0099484399 -0.20958142 -0.07944417 4278190080
-0.0099916756 -0.20965268 -0.079451524 4278190080
-0.0099917464 -0.20965272 -0.079451516 4278190080
-0.0061503388 -0.21683618 -0.073072627 4278190080
-0.0010919608 -0.21259533 -0.06718418 4278190080
-0.007297527 -0.2167483 -0.074109368 4278190080
0.00022735074 -0.20849699 -0.066485628 4278190080
-0.0061093159 -0.20308974 -0.078751072 4278190080
-0.0015002601 -0.21454808 -0.067569077 4278190080
-0.0089491419 -0.2166826 -0.075392559 4278190080
-0.0040066689 -0.2171454 -0.070636243 4278190080
-0.0022287257 -0.20218016 -0.076424681 4278190080
-0.0022287332 -0.20218013 -0.076424703 4278190080
-0.00222864 -0.20218016 -0.076424703 4278190080
-0.0022286512 -0.20218016 -0.076424725 4278190080
-0.005516462 -0.20265117 -0.07878305 4278190080
0.00090694427 -0.2079622 -0.066514388 4278190080
0.00090702996 -0.2079622 -0.06651441 4278190080
-0.0034565143 -0.21724689 -0.06993477 4278190080
