# .PCD v0.7 - Point Cloud Data file format
VERSION 0.7
FIELDS x y z rgb
SIZE 4 4 4 4
TYPE F F F U
COUNT 1 1 1 1
WIDTH 134
HEIGHT 1
VIEWPOINT 0 0 0 1 0 0 0
POINTS 134
DATA ascii
0.045335248 -0.10019724 -0.075589173 4278190080
0.04253941 -0.097254984 -0.075056195 4278190080
0.04253941 -0.097254999 -0.075056203 4278190080
0.045454543 -0.094385989 -0.073294759 4278190080
0.04539337 -0.097253256 -0.073504001 4278190080
0.04539337 -0.09725327 -0.073504023 4278190080
0.045516346 -0.091534458 -0.073470734 4278190080
0.045379251 -0.097956091 -0.073905595 4278190080
0.04391937 -0.094383828 -0.074054085 4278190080
0.044415556 -0.097249784 -0.073936045 4278190080
0.044415496 -0.097249769 -0.073936045 4278190080
0.049975552 -0.088686928 -0.071417861 4278190080
0.048432879 -0.088700183 -0.07255844 4278190080
0.044205479 -0.091534697 -0.07417015 4278190080
0.04819043 -0.10022572 -0.074775517 4278190080
0.042600587 -0.09438777 -0.07484813 4278190080
0.048213545 -0.099044271 -0.073856503 4278190080
0.051286038 -0.088677891 -0.070503376 4278190080
0.051101662 -0.097258382 -0.07060954 4278190080
0.051101662 -0.097258404 -0.070609599 4278190080
0.051093709 -0.097679242 -0.071048245 4278190080
0.053926405 -0.098840371 -0.070996165 4278190080
0.050206363 -0.097257733 -0.071066916 4278190080
0.050206274 -0.097257718 -0.071066916 4278190080
0.049325384 -0.094383501 -0.071185917 4278190080
0.051224787 -0.091543302 -0.070667192 4278190080
0.048308387 -0.094380945 -0.071661495 4278190080
0.056763813 -0.099783905 -0.070952974 4278190080
0.053900011 -0.10026368 -0.072683871 4278190080
0.049948186 -0.091541611 -0.07130114 4278190080
0.048247717 -0.097260877 -0.072180375 4278190080
0.048247717 -0.097260892 -0.07218042 4278190080
0.056755003 -0.1002878 -0.071763813 4278190080
0.051045075 -0.10024083 -0.073635034 4278190080
0.051042881 -0.10036176 -0.073798031 4278190080
0.050639816 -0.10023896 -0.073803708 4278190080
0.053890307 -0.10084184 -0.073773786 4278190080
0.048370432 -0.091535501 -0.071986325 4278190080
0.054116584 -0.09436994 -0.068319291 4278190080
0.05411648 -0.09436994 -0.068319313 4278190080
0.054016028 -0.094370142 -0.068377338 4278190080
0.054264251 -0.091517836 -0.068435706 4278190080
0.054264162 -0.091517828 -0.068435729 4278190080
0.054077841 -0.091518924 -0.06856104 4278190080
0.056810427 -0.097276166 -0.068024553 4278190080
0.056810427 -0.097276188 -0.068024643 4278190080
0.056373179 -0.09727376 -0.068196855 4278190080
0.056373388 -0.097273774 -0.068196855 4278190080
0.056372985 -0.097273752 -0.068196878 4278190080
0.056373209 -0.097273774 -0.068196878 4278190080
0.056807868 -0.097414456 -0.068190396 4278190080
0.056807868 -0.097414508 -0.068190418 4278190080
0.054106925 -0.090159416 -0.068491548 4278190080
0.05410694 -0.090158686 -0.068491548 4278190080
0.053955726 -0.09725932 -0.069122449 4278190080
0.053955726 -0.097259335 -0.069122523 4278190080
0.054139122 -0.088654324 -0.068417139 4278190080
0.059656139 -0.097855493 -0.068167746 4278190080
0.059656154 -0.097855501 -0.068167746 4278190080
0.059656139 -0.097855538 -0.068167768 4278190080
0.059656154 -0.097855553 -0.068167768 4278190080
0.053999491 -0.088656865 -0.06855315 4278190080
0.053999417 -0.088656865 -0.068553172 4278190080
0.054157108 -0.087838434 -0.068586372 4278190080
0.054157116 -0.087837979 -0.068586424 4278190080
0.051162627 -0.094385847 -0.070271425 4278190080
0.059782892 -0.091443039 -0.063685477 4278190080
0.059782878 -0.091443039 -0.063685521 4278190080
0.059721969 -0.094316602 -0.064048246 4278190080
0.059721954 -0.094316602 -0.064048268 4278190080
0.059845559 -0.08861322 -0.06439209 4278190080
0.059845544 -0.08861322 -0.064392127 4278190080
0.057250138 -0.091465436 -0.06557361 4278190080
0.056929965 -0.091471016 -0.065879613 4278190080
0.05688544 -0.093494833 -0.065491192 4278190080
0.059693329 -0.095803514 -0.065392211 4278190080
0.059693344 -0.095803544 -0.065392211 4278190080
0.057771351 -0.088621378 -0.065689094 4278190080
0.056867618 -0.094308943 -0.065370984 4278190080
0.056865163 -0.094432548 -0.065452866 4278190080
0.056751829 -0.094310001 -0.065458067 4278190080
0.06254793 -0.095951863 -0.065381527 4278190080
0.056992035 -0.088626251 -0.066220716 4278190080
0.059907522 -0.085765623 -0.064664401 4278190080
0.059907507 -0.08576563 -0.064664431 4278190080
0.058046676 -0.085772015 -0.065805197 4278190080
0.05966581 -0.097309753 -0.067335919 4278190080
0.059665795 -0.097309753 -0.067335948 4278190080
0.05966581 -0.097309776 -0.067336023 4278190080
0.059665795 -0.097309776 -0.067336045 4278190080
0.065409444 -0.095780879 -0.065383881 4278190080
0.062522374 -0.097373717 -0.067390122 4278190080
0.062522374 -0.097373739 -0.067390256 4278190080
0.062699169 -0.088602945 -0.062630855 4278190080
0.062637143 -0.091448791 -0.062316276 4278190080
0.0623818 -0.088603929 -0.062822916 4278190080
0.062723316 -0.08750809 -0.062867194 4278190080
0.062619671 -0.092301957 -0.062671274 4278190080
0.063256554 -0.085767463 -0.062937528 4278190080
0.065434076 -0.094418146 -0.063511431 4278190080
0.061510701 -0.091440462 -0.062708311 4278190080
0.062761679 -0.085769169 -0.063241199 4278190080
0.068291463 -0.094502084 -0.064054117 4278190080
0.062577918 -0.09436506 -0.063723296 4278190080
0.065678604 -0.082944676 -0.062568247 4278190080
0.068407767 -0.088615842 -0.059926342 4278190080
0.068406537 -0.088675566 -0.059950814 4278190080
0.068348952 -0.088615671 -0.059953358 4278190080
0.071262643 -0.088636667 -0.058925685 4278190080
0.071234085 -0.090075783 -0.059888963 4278190080
0.068347827 -0.091514096 -0.06089332 4278190080
0.06846875 -0.085743777 -0.059600301 4278190080
0.071204096 -0.091570005 -0.060750522 4278190080
0.067845367 -0.085749552 -0.060071409 4278190080
0.071322843 -0.085744895 -0.058117643 4278190080
0.065553144 -0.088601068 -0.06107514 4278190080
0.074116737 -0.088638313 -0.057455953 4278190080
0.07271757 -0.085737735 -0.057204578 4278190080
0.068500914 -0.084310614 -0.060129199 4278190080
0.074079551 -0.090646848 -0.059860997 4278190080
0.065491796 -0.091464058 -0.061179712 4278190080
0.074131228 -0.087924913 -0.057112828 4278190080
0.068317249 -0.093137272 -0.062627882 4278190080
0.065615311 -0.085758753 -0.061476521 4278190080
0.074060842 -0.091638088 -0.060905501 4278190080
0.074854292 -0.088638991 -0.057082448 4278190080
0.071177445 -0.093027487 -0.06262774 4278190080
0.069092147 -0.082921095 -0.060185075 4278190080
0.068531729 -0.082921728 -0.060497165 4278190080
0.071384281 -0.082884267 -0.058071017 4278190080
0.074175656 -0.085714482 -0.055864096 4278190080
0.065454453 -0.093367457 -0.062623106 4278190080
0.072240598 -0.08287219 -0.057322558 4278190080
0.07404124 -0.092750363 -0.062634438 4278190080
