# .PCD v0.7 - Point Cloud Data file format
VERSION 0.7
FIELDS x y z rgb
SIZE 4 4 4 4
TYPE F F F U
COUNT 1 1 1 1
WIDTH 139
HEIGHT 1
VIEWPOINT 0 0 0 1 0 0 0
POINTS 139
DATA ascii
0.069798112 -0.12677397 -0.0001852843 4278190080
0.071401171 -0.12163109 -0.0005133017 4278190080
0.071587823 -0.12110559 -0.00054794829 4278190080
0.071587838 -0.12110557 -0.00054795016 4278190080
0.068897471 -0.1268947 -0.002998847 4278190080
0.06694553 -0.12984607 -0.0056235115 4278190080
0.065095015 -0.13065664 -0.0083567407 4278190080
0.071339309 -0.117842 -0.0035574492 4278190080
0.071355924 -0.11835945 -0.0029732096 4278190080
0.07055971 -0.12393676 -0.00036017224 4278190080
0.068242721 -0.12973636 -0.0028712456 4278190080
0.068260439 -0.12973468 -0.0028299843 4278190080
0.071391255 -0.12112173 -0.00095571671 4278190080
0.071391255 -0.12112176 -0.00095568597 4278190080
0.068243288 -0.12980944 -0.00282552 4278190080
0.071093231 -0.11566778 -0.0065143788 4278190080
0.071104668 -0.11838137 -0.003519759 4278190080
0.068201281 -0.12418322 -0.0063160639 4278190080
0.068937227 -0.1213279 -0.0061340006 4278190080
0.068937257 -0.12132788 -0.0061340034 4278190080
0.068351291 -0.12416904 -0.0059676077 4278190080
0.068201542 -0.12502415 -0.0059188432 4278190080
0.07000035 -0.11849751 -0.0063234703 4278190080
0.067771189 -0.12701033 -0.0058014966 4278190080
0.070235148 -0.11578947 -0.0093300045 4278190080
0.068210147 -0.12697139 -0.0048332247 4278190080
0.070212997 -0.12121563 -0.00333858 4278190080
0.070213027 -0.1212156 -0.0033385828 4278190080
0.0650855 -0.12996902 -0.0088737551 4278190080
0.069500588 -0.12405392 -0.0031660721 4278190080
0.065345086 -0.12995102 -0.008403236 4278190080
0.068175547 -0.12141154 -0.0081399158 4278190080
0.068175547 -0.12141155 -0.0081398459 4278190080
0.068427525 -0.11603078 -0.014956824 4278190080
0.06842754 -0.11603078 -0.014956808 4278190080
0.068960026 -0.11861508 -0.0091302823 4278190080
0.067838214 -0.11560852 -0.017812029 4278190080
0.069307081 -0.11590958 -0.012142237 4278190080
0.068062842 -0.11872485 -0.011720199 4278190080
0.067052968 -0.1242808 -0.0087619433 4278190080
0.067864135 -0.12144474 -0.008939228 4278190080
0.067864165 -0.12144472 -0.0089392308 4278190080
0.063870661 -0.13005881 -0.011189045 4278190080
0.068149336 -0.12075668 -0.0089866109 4278190080
0.061958916 -0.13090116 -0.013917712 4278190080
0.061958916 -0.13090122 -0.013917691 4278190080
0.066249661 -0.12711707 -0.0085850377 4278190080
0.065761402 -0.12439272 -0.011556597 4278190080
0.066745512 -0.12156055 -0.011742246 4278190080
0.066745542 -0.12156053 -0.011742247 4278190080
0.065038495 -0.12660296 -0.011413948 4278190080
0.064850517 -0.12722656 -0.01137449 4278190080
0.061939627 -0.1301906 -0.014647337 4278190080
0.065046862 -0.12720996 -0.010958182 4278190080
0.062279262 -0.13016397 -0.013969209 4278190080
0.062279291 -0.13016397 -0.013969192 4278190080
0.067949422 -0.11695289 -0.014888564 4278190080
0.067949422 -0.11695284 -0.014888586 4278190080
0.067569382 -0.11615247 -0.017772425 4278190080
0.067879178 -0.11610743 -0.016733415 4278190080
0.067984626 -0.11873413 -0.011940226 4278190080
0.068054862 -0.11858299 -0.011951011 4278190080
0.061856981 -0.12747452 -0.017620424 4278190080
0.062150236 -0.12744774 -0.016958127 4278190080
0.061877534 -0.12807916 -0.016914101 4278190080
0.064961396 -0.12356859 -0.014420843 4278190080
0.064961396 -0.12356865 -0.01442082 4278190080
0.064599127 -0.12450755 -0.014357513 4278190080
0.064599141 -0.12450755 -0.014357494 4278190080
0.065601096 -0.12167578 -0.014544024 4278190080
0.06560111 -0.12167576 -0.014544027 4278190080
0.06560111 -0.12167578 -0.014544007 4278190080
0.065601125 -0.12167576 -0.014544008 4278190080
0.064991213 -0.12446748 -0.013385886 4278190080
0.0635316 -0.12733786 -0.014167828 4278190080
0.06353163 -0.12733786 -0.014167812 4278190080
0.066991702 -0.11885278 -0.01474933 4278190080
0.066991732 -0.11885278 -0.014749315 4278190080
0.059530675 -0.13038406 -0.019550508 4278190080
0.060893819 -0.13027376 -0.016759308 4278190080
0.06771633 -0.11479284 -0.020709399 4278190080
0.066869117 -0.11627772 -0.020595685 4278190080
0.064864993 -0.12149079 -0.017380493 4278190080
0.064713433 -0.1217968 -0.017358195 4278190080
0.064713463 -0.12179678 -0.017358201 4278190080
0.066154554 -0.11897494 -0.017565947 4278190080
0.064885899 -0.12177354 -0.016816942 4278190080
0.064885899 -0.12177356 -0.016816851 4278190080
0.063360259 -0.12462065 -0.017154701 4278190080
0.060863908 -0.12755977 -0.019753041 4278190080
0.062069997 -0.12216029 -0.025801716 4278190080
0.062069967 -0.12216031 -0.025801715 4278190080
0.061493129 -0.12223631 -0.027576935 4278190080
0.061493121 -0.1222363 -0.027577085 4278190080
0.06363678 -0.11934128 -0.026015542 4278190080
0.06156572 -0.12296543 -0.025737839 4278190080
0.061451685 -0.12176102 -0.028654398 4278190080
0.06114427 -0.12228046 -0.028614072 4278190080
0.06114421 -0.12228048 -0.028614067 4278190080
0.062847406 -0.11946452 -0.028834492 4278190080
0.062955998 -0.12203925 -0.022987444 4278190080
0.062956043 -0.12203923 -0.022987448 4278190080
0.064524256 -0.11780984 -0.026133502 4278190080
0.064477265 -0.11921919 -0.02319907 4278190080
0.064640217 -0.11891875 -0.02322166 4278190080
0.06025568 -0.12497376 -0.025575919 4278190080
0.061681964 -0.12406043 -0.022826685 4278190080
0.064663447 -0.11919405 -0.02261366 4278190080
0.064402476 -0.11698919 -0.029031117 4278190080
0.06133518 -0.12067895 -0.03156491 4278190080
0.06526079 -0.11652353 -0.026232138 4278190080
0.05944068 -0.12509641 -0.028393628 4278190080
0.061147038 -0.12485281 -0.022761906 4278190080
0.062062602 -0.11958786 -0.031653654 4278190080
0.064606331 -0.11664981 -0.029057611 4278190080
0.060245454 -0.12240122 -0.031427719 4278190080
0.06024541 -0.12240124 -0.031427715 4278190080
0.064354315 -0.1166992 -0.030160971 4278190080
0.063887626 -0.12191922 -0.020175382 4278190080
0.063887656 -0.1219192 -0.020175384 4278190080
0.061753679 -0.12477861 -0.021010755 4278190080
0.066038609 -0.11640003 -0.023412634 4278190080
0.064752586 -0.12020579 -0.020301031 4278190080
0.065367267 -0.11909822 -0.020384995 4278190080
0.06395492 -0.11677616 -0.031883225 4278190080
0.058586128 -0.12521818 -0.031209419 4278190080
0.058490358 -0.12705429 -0.028251939 4278190080
0.062186006 -0.12473521 -0.019955037 4278190080
0.064277939 -0.11630502 -0.031921986 4278190080
0.058936439 -0.12779839 -0.02537406 4278190080
0.058380369 -0.12564941 -0.031178381 4278190080
0.058554176 -0.12784939 -0.02656321 4278190080
0.061790377 -0.12554327 -0.019896388 4278190080
0.059902225 -0.12767912 -0.022563649 4278190080
0.058346421 -0.1252555 -0.032063186 4278190080
0.061213709 -0.11984285 -0.034463286 4278190080
0.061213709 -0.11984287 -0.034463361 4278190080
0.061311271 -0.11971196 -0.03447444 4278190080
0.061311286 -0.11971196 -0.034474514 4278190080
