# .PCD v0.7 - Point Cloud Data file format
VERSION 0.7
FIELDS x y z rgba label
SIZE 4 4 4 4 4
TYPE F F F U U
COUNT 1 1 1 1 1
WIDTH 134
HEIGHT 1
VIEWPOINT 0 0 0 1 0 0 0
POINTS 134
DATA ascii
-0.077142835 0.0074880836 0.14571428 4278190080 12321
-0.079999976 0.0068307635 0.14285715 4278190080 12320
-0.079999961 0.0068307752 0.14285715 4278190080 12280
-0.082857102 0.0049581798 0.14571428 4278190080 12268
-0.079999976 0.0052843518 0.14571428 4278190080 12306
-0.079999961 0.0052843783 0.14571428 4278190080 12277
-0.085714251 0.0050175781 0.14571428 4278190080 12258
-0.079313941 0.0057143238 0.14571428 4278190080 12307
-0.082857102 0.0057143238 0.14417753 4278190080 12269
-0.079999961 0.0057143238 0.14473554 4278190080 12278
-0.079999976 0.0057143238 0.14473549 4278190080 12308
-0.088571385 0.002857181 0.15011631 4278190080 12241
-0.088571385 0.0039948942 0.14857143 4278190080 12244
-0.085714251 0.0057143238 0.14440198 4278190080 12259
-0.077142835 0.0066808634 0.14857143 4278190080 12322
-0.082857102 0.0065057753 0.14285715 4278190080 12271
-0.078286067 0.0057143238 0.14857143 4278190080 12310
-0.088571385 0.001945177 0.15142858 4278190080 12240
-0.079999976 0.0024016444 0.15142858 4278190080 12296
-0.079999961 0.0024016991 0.15142858 4278190080 12273
-0.079597272 0.002857181 0.15142858 4278190080 12297
-0.078496374 0.002857181 0.15428571 4278190080 12300
-0.079999961 0.002857181 0.15053234 4278190080 12274
-0.079999976 0.002857181 0.15053225 4278190080 12298
-0.082857102 0.002857181 0.14958943 4278190080 12265
-0.085714251 0.0022258658 0.15142858 4278190080 12252
-0.082857102 0.0033306319 0.14857143 4278190080 12270
-0.077613309 0.002857181 0.15714285 4278190080 12303
-0.077142835 0.0046016714 0.15428571 4278190080 12313
-0.085714251 0.002857181 0.15015066 4278190080 12253
-0.079999976 0.0039667143 0.14857143 4278190080 12309
-0.079999961 0.0039667585 0.14857143 4278190080 12279
-0.077142835 0.0036879564 0.15714285 4278190080 12314
-0.077142835 0.005546527 0.15142858 4278190080 12312
-0.077028625 0.0057143238 0.15142858 4278190080 12324
-0.077142835 0.0057143238 0.15102296 4278190080 12311
-0.076609544 0.0057143238 0.15428571 4278190080 12325
-0.085714251 0.0035390141 0.14857143 4278190080 12260
-0.082857102 3.8146972e-08 0.15438639 4278190080 12267
-0.082857102 5.7220458e-08 0.15438628 4278190080 12151
-0.082857102 5.7881527e-05 0.15428571 4278190080 12266
-0.085714251 3.8146972e-08 0.15447237 4278190080 12256
-0.085714251 5.7220458e-08 0.15447228 4278190080 12145
-0.085714251 0.00012501053 0.15428571 4278190080 12255
-0.079999976 -0.00017132077 0.15714285 4278190080 12282
-0.079999961 -0.00017123223 0.15714285 4278190080 12154
-0.079999976 3.8146972e-08 0.15670522 4278190080 12301
-0.079999961 3.8146972e-08 0.15670542 4278190080 12276
-0.079999976 5.7220458e-08 0.15670502 4278190080 12284
-0.079999961 5.7220458e-08 0.15670525 4278190080 12155
-0.07986854 3.8146972e-08 0.15714285 4278190080 12302
-0.079868488 5.7220458e-08 0.15714285 4278190080 12283
-0.087070167 5.7220458e-08 0.15428571 4278190080 12144
-0.087070897 3.8146972e-08 0.15428571 4278190080 12254
-0.079999976 0.00092040357 0.15428571 4278190080 12299
-0.079999961 0.00092046399 0.15428571 4278190080 12275
-0.088571385 -0.00013574328 0.15428571 4278190080 12139
-0.079488538 3.8146972e-08 0.15999998 4278190080 11489
-0.079488531 3.8146972e-08 0.16 4278190080 12304
-0.079488494 5.7220458e-08 0.15999998 4278190080 9245
-0.079488479 5.7220458e-08 0.16 4278190080 12286
-0.088571385 3.8146972e-08 0.15414582 4278190080 12242
-0.088571385 5.7220458e-08 0.15414575 4278190080 12140
-0.089393742 3.8146972e-08 0.15428571 4278190080 12243
-0.089394197 5.7220458e-08 0.15428571 4278190080 12138
-0.082857102 0.0019464883 0.15142858 4278190080 12264
-0.085714251 -0.0047405274 0.16 4278190080 12142
-0.085714251 -0.0047404831 0.15999998 4278190080 9911
-0.082857102 -0.0042607132 0.16 4278190080 12150
-0.082857102 -0.0042606913 0.15999998 4278190080 9925
-0.088571385 -0.0041500335 0.16 4278190080 12136
-0.088571385 -0.004149993 0.15999998 4278190080 9894
-0.085714251 -0.0028570858 0.1574636 4278190080 12143
-0.085714251 -0.0025516183 0.15714285 4278190080 12146
-0.083675675 -0.0028570858 0.15714285 4278190080 12147
-0.081425935 -0.0028570858 0.15999998 4278190080 9950
-0.081425905 -0.0028570858 0.16 4278190080 12153
-0.088571385 -0.0028570858 0.15792321 4278190080 12137
-0.082857102 -0.0029439519 0.15714285 4278190080 12148
-0.082736917 -0.0028570858 0.15714285 4278190080 12152
-0.082857102 -0.0028570858 0.15702689 4278190080 12149
-0.08133895 -0.0028570858 0.16285712 4278190080 9949
-0.088571385 -0.0023269423 0.15714285 4278190080 12141
-0.091428533 -0.0039942209 0.16 4278190080 12132
-0.091428533 -0.0039941897 0.15999998 4278190080 9877
-0.091428533 -0.0028570858 0.15813687 4278190080 12133
-0.079999976 -0.00085340912 0.16 4278190080 12285
-0.079999976 -0.00085338455 0.15999998 4278190080 9242
-0.079999961 -0.00085330964 0.16 4278190080 12156
-0.079999961 -0.00085328374 0.15999998 4278190080 9956
-0.081571646 -0.0028570858 0.16571426 4278190080 9951
-0.079999976 -0.00079201697 0.16285712 4278190080 9243
-0.079999961 -0.00079188484 0.16285712 4278190080 9957
-0.088571385 -0.0059056678 0.16285712 4278190080 9891
-0.085714251 -0.0061037871 0.16285712 4278190080 9903
-0.088571385 -0.0057142288 0.16253936 4278190080 9892
-0.089675292 -0.0057142288 0.16285712 4278190080 9890
-0.08487606 -0.0057142288 0.16285712 4278190080 9916
-0.091428533 -0.0057142288 0.16335259 4278190080 9875
-0.082857102 -0.0047837081 0.16571426 4278190080 9926
-0.085714251 -0.0057142288 0.16172978 4278190080 9904
-0.091428533 -0.0054115294 0.16285712 4278190080 9878
-0.082857102 -0.0042333999 0.16857141 4278190080 9927
-0.082857102 -0.0045788018 0.16285712 4278190080 9924
-0.094285674 -0.0061946553 0.16571426 4278190080 9854
-0.088571385 -0.0085982597 0.16857141 4278190080 9886
-0.088512689 -0.0085713714 0.16857141 4278190080 9898
-0.088571385 -0.0085713714 0.16851254 4278190080 9887
-0.088571385 -0.0095926523 0.17142856 4278190080 9888
-0.087172434 -0.0085713714 0.17142856 4278190080 9899
-0.085714251 -0.0075136977 0.16857141 4278190080 9906
-0.091428533 -0.0090413224 0.16857141 4278190080 9871
-0.085714251 -0.0076494706 0.17142856 4278190080 9907
-0.091428533 -0.0085713714 0.16794711 4278190080 9872
-0.091428533 -0.010518142 0.17142856 4278190080 9873
-0.088571385 -0.0074556 0.16571426 4278190080 9893
-0.088571385 -0.011056525 0.17428569 4278190080 9889
-0.091428533 -0.011428514 0.17282508 4278190080 9869
-0.092882521 -0.0085713714 0.16857141 4278190080 9870
-0.086662255 -0.0085713714 0.17428569 4278190080 9900
-0.085714251 -0.0072341999 0.16571426 4278190080 9905
-0.089270368 -0.011428514 0.17428569 4278190080 9883
-0.084162861 -0.0057142288 0.16857141 4278190080 9918
-0.091428533 -0.0071706073 0.16571426 4278190080 9874
-0.085714251 -0.0074872179 0.17428569 4278190080 9908
-0.088571385 -0.011428514 0.17502402 4278190080 9884
-0.084334299 -0.0057142288 0.17142856 4278190080 9919
-0.094285674 -0.0085713714 0.16913246 4278190080 9852
-0.094285674 -0.0082604028 0.16857141 4278190080 9856
-0.094285674 -0.010681543 0.17142856 4278190080 9851
-0.091428533 -0.012766517 0.17428569 4278190080 9868
-0.083870903 -0.0057142288 0.16571426 4278190080 9917
-0.094285674 -0.011428514 0.17228629 4278190080 9850
-0.084673256 -0.0057142288 0.17428569 4278190080 9920
