# .PCD v0.7 - Point Cloud Data file format
VERSION 0.7
FIELDS x y z rgb
SIZE 4 4 4 4
TYPE F F F U
COUNT 1 1 1 1
WIDTH 162
HEIGHT 1
VIEWPOINT 0 0 0 1 0 0 0
POINTS 162
DATA ascii
0.060850486 -0.16716017 0.0004356564 4278190080
0.063019246 -0.16897139 0.0005132528 4278190080
0.063662238 -0.16929112 0.00052737258 4278190080
0.066484258 -0.17028309 0.0062913634 4278190080
0.063647218 -0.16965377 0.0034016084 4278190080
0.069367059 -0.1687375 0.0095958766 4278190080
0.069358669 -0.169184 0.0091104908 4278190080
0.069426365 -0.16582346 0.010948528 4278190080
0.069457658 -0.16427363 0.011769216 4278190080
0.066486508 -0.17051089 0.0034412642 4278190080
0.069330804 -0.17080462 0.0063173054 4278190080
0.069485441 -0.16290343 0.012447333 4278190080
0.066433735 -0.16572301 0.011823603 4278190080
0.066568486 -0.16572709 0.011795005 4278190080
0.066569328 -0.16568434 0.01182224 4278190080
0.066627748 -0.1628118 0.013177967 4278190080
0.066510387 -0.16867159 0.0096977334 4278190080
0.063640393 -0.16963789 0.0062603671 4278190080
0.066501051 -0.16917442 0.009105471 4278190080
0.058012661 -0.1658849 0.0034063444 4278190080
0.058012675 -0.1658849 0.0034062029 4278190080
0.058091536 -0.16589345 0.0032388039 4278190080
0.058014888 -0.16580199 0.0032349392 4278190080
0.058014873 -0.16580191 0.0032349359 4278190080
0.060823489 -0.16807704 0.003332543 4278190080
0.06668029 -0.16022061 0.014458343 4278190080
0.06668029 -0.16022053 0.014458355 4278190080
0.061805867 -0.16882865 0.0033648764 4278190080
0.066686794 -0.15989107 0.014694536 4278190080
0.062716611 -0.16861497 0.0090764593 4278190080
0.063654527 -0.16862592 0.00930453 4278190080
0.063650906 -0.16881995 0.0090863574 4278190080
0.060808234 -0.16845098 0.0062072342 4278190080
0.06117668 -0.16869847 0.0062179533 4278190080
0.063834719 -0.15932252 0.017276421 4278190080
0.060854569 -0.16558059 0.012357587 4278190080
0.060845077 -0.16608293 0.011829274 4278190080
0.05797673 -0.16690242 0.0089987358 4278190080
0.057976745 -0.16690245 0.0089987367 4278190080
0.055186279 -0.16411902 0.0060209404 4278190080
0.063764393 -0.16290714 0.014563508 4278190080
0.063764393 -0.16290703 0.01456352 4278190080
0.063768715 -0.16268632 0.014736691 4278190080
0.053877544 -0.16283086 0.005966132 4278190080
0.056632105 -0.16574541 0.0060898056 4278190080
0.064063951 -0.1627001 0.01455554 4278190080
0.064064085 -0.1627001 0.014555525 4278190080
0.060812421 -0.16792552 0.0090451753 4278190080
0.063711107 -0.1656432 0.012336484 4278190080
0.063143373 -0.15970838 0.017291086 4278190080
0.06370116 -0.16616331 0.011837186 4278190080
0.052394487 -0.16106574 0.0058915322 4278190080
0.057988517 -0.16668917 0.0061306045 4278190080
0.057988532 -0.16668922 0.0061306064 4278190080
0.061006166 -0.15763715 0.020062333 4278190080
0.063826866 -0.15974325 0.016799511 4278190080
0.057327408 -0.16552709 0.011800842 4278190080
0.057998665 -0.16553356 0.011997749 4278190080
0.05799868 -0.16553356 0.011997771 4278190080
0.055158772 -0.16505933 0.0089187846 4278190080
0.057994902 -0.16573021 0.011810232 4278190080
0.057994917 -0.16573022 0.011810232 4278190080
0.055667248 -0.16560802 0.0089420509 4278190080
0.06095035 -0.16055049 0.017321978 4278190080
0.060911492 -0.16260655 0.015177259 4278190080
0.060896594 -0.16336845 0.014577748 4278190080
0.060896594 -0.16336851 0.014577735 4278190080
0.060968347 -0.15963089 0.018036921 4278190080
0.052363466 -0.16216865 0.0087960213 4278190080
0.055165011 -0.1644391 0.011752838 4278190080
0.05279148 -0.16269085 0.0088180751 4278190080
0.058054861 -0.16254136 0.015261577 4278190080
0.058054876 -0.16254136 0.015261577 4278190080
0.058038056 -0.1634026 0.014574517 4278190080
0.058038071 -0.1634026 0.014574517 4278190080
0.058038052 -0.16340266 0.014574504 4278190080
0.058038067 -0.16340266 0.014574504 4278190080
0.058168292 -0.15658294 0.021154623 4278190080
0.058168307 -0.15658294 0.021154631 4278190080
0.047811039 -0.15652324 0.017135974 4278190080
0.049203053 -0.15940847 0.017256243 4278190080
0.049603801 -0.1565225 0.018102627 4278190080
0.049543478 -0.15941121 0.017369149 4278190080
0.049540963 -0.15954058 0.017262194 4278190080
0.046776876 -0.15520515 0.017080385 4278190080
0.048947427 -0.1595196 0.01440097 4278190080
0.048947442 -0.1595196 0.014400955 4278190080
0.047196705 -0.15662667 0.014279805 4278190080
0.04719672 -0.15662667 0.01427979 4278190080
0.049534716 -0.16016139 0.014428172 4278190080
0.049534716 -0.16016138 0.014428155 4278190080
0.046768423 -0.15592806 0.014250537 4278190080
0.046768423 -0.15592805 0.014250522 4278190080
0.049647119 -0.15429889 0.019907394 4278190080
0.052399222 -0.15945435 0.017824184 4278190080
0.052386925 -0.16008823 0.017289203 4278190080
0.046804346 -0.15360284 0.019874321 4278190080
0.052457277 -0.15650871 0.019949831 4278190080
0.046805788 -0.15352616 0.019957824 4278190080
0.046805788 -0.1535261 0.01995774 4278190080
0.052458897 -0.15642755 0.019999016 4278190080
0.052539922 -0.15650834 0.020002451 4278190080
0.04628871 -0.15351851 0.019870035 4278190080
0.046288159 -0.15351856 0.019870037 4278190080
0.049661692 -0.15357286 0.02032588 4278190080
0.049661692 -0.1535728 0.02032581 4278190080
0.044899855 -0.15360533 0.017011911 4278190080
0.044899914 -0.15360527 0.017011907 4278190080
0.045091938 -0.1537261 0.01415774 4278190080
0.045091894 -0.1537261 0.014157755 4278190080
0.045091953 -0.15372604 0.014157753 4278190080
0.045091968 -0.15372604 0.014157739 4278190080
0.04955256 -0.15963915 0.011795378 4278190080
0.047944929 -0.1567594 0.011427026 4278190080
0.049554855 -0.15956166 0.011544254 4278190080
0.049607251 -0.15965044 0.01154797 4278190080
0.05197544 -0.16244002 0.014525311 4278190080
0.051975545 -0.16244003 0.014525326 4278190080
0.052517079 -0.153607 0.021000892 4278190080
0.052517079 -0.15360694 0.021000845 4278190080
0.052342944 -0.16244453 0.014609573 4278190080
0.052340664 -0.16255973 0.014530814 4278190080
0.052340664 -0.16255976 0.0145308 4278190080
0.043971196 -0.15246174 0.019823059 4278190080
0.046793949 -0.1550792 0.011356438 4278190080
0.055255219 -0.15950373 0.018126635 4278190080
0.055300068 -0.15719703 0.020035092 4278190080
0.055236917 -0.16044955 0.017308597 4278190080
0.055312451 -0.15653741 0.020757787 4278190080
0.049694017 -0.15179804 0.022664592 4278190080
0.046838373 -0.15169737 0.022655852 4278190080
0.046020318 -0.1538627 0.011305427 4278190080
0.046020333 -0.15386264 0.011305424 4278190080
0.044446811 -0.15074024 0.016893987 4278190080
0.044014379 -0.15069547 0.017760692 4278190080
0.04511473 -0.15087123 0.014041021 4278190080
0.045114744 -0.15087123 0.014041007 4278190080
0.052115835 -0.16255969 0.011671027 4278190080
0.052547283 -0.15200791 0.022677798 4278190080
0.052344259 -0.16272524 0.01167817 4278190080
0.055198815 -0.16249073 0.014989927 4278190080
0.043982513 -0.15160653 0.022647507 4278190080
0.046822686 -0.15395029 0.009586256 4278190080
0.046822686 -0.15395023 0.0095862905 4278190080
0.055372257 -0.1536358 0.021806592 4278190080
0.055372257 -0.15363574 0.021806568 4278190080
0.055187929 -0.16304727 0.014555367 4278190080
0.055187929 -0.16304731 0.014555354 4278190080
0.04267294 -0.15058543 0.01974421 4278190080
0.049594335 -0.15806751 0.00862379 4278190080
0.048860189 -0.15689573 0.0085746711 4278190080
0.052349195 -0.16260144 0.010772336 4278190080
0.050547075 -0.1597873 0.0086956769 4278190080
0.045837644 -0.15100344 0.011188179 4278190080
0.058111511 -0.15956049 0.018248554 4278190080
0.058111526 -0.15956049 0.018248562 4278190080
0.047361162 -0.15400819 0.0084541356 4278190080
0.047361191 -0.15400814 0.0084541338 4278190080
0.058149174 -0.1575994 0.020056162 4278190080
0.058149189 -0.1575994 0.020056162 4278190080
0.058090497 -0.16064507 0.017321214 4278190080
0.058090512 -0.16064507 0.017321214 4278190080
