# .PCD v0.7 - Point Cloud Data file format
VERSION 0.7
FIELDS x y z rgb
SIZE 4 4 4 4
TYPE F F F U
COUNT 1 1 1 1
WIDTH 162
HEIGHT 1
VIEWPOINT 0 0 0 1 0 0 0
POINTS 162
DATA ascii
0.088224441 -0.17883801 -0.02260413 4278190080
0.090650894 -0.18000463 -0.023465097 4278190080
0.091327585 -0.18014605 -0.023659863 4278190080
0.09554974 -0.18193023 -0.019059071 4278190080
0.092051059 -0.18126635 -0.021087829 4278190080
0.098782018 -0.18067254 -0.015961897 4278190080
0.09874437 -0.18095827 -0.016555205 4278190080
0.098608956 -0.17831454 -0.013785746 4278190080
0.098540284 -0.17708796 -0.012533728 4278190080
0.094930127 -0.18136874 -0.021793403 4278190080
0.098369762 -0.18171503 -0.019672403 4278190080
0.098468617 -0.17599066 -0.011471163 4278190080
0.095938288 -0.17920198 -0.012440003 4278190080
0.096060984 -0.17916453 -0.012490369 4278190080
0.096060157 -0.17913194 -0.012451541 4278190080
0.095894709 -0.17681359 -0.010285508 4278190080
0.096067324 -0.18134865 -0.015371796 4278190080
0.092707947 -0.1820284 -0.018411746 4278190080
0.096014395 -0.18165801 -0.016082596 4278190080
0.08597029 -0.17916262 -0.018954908 4278190080
0.085970268 -0.17916259 -0.018955046 4278190080
0.086008102 -0.17910555 -0.019127179 4278190080
0.085916951 -0.17903849 -0.01908911 4278190080
0.085916929 -0.17903842 -0.019089088 4278190080
0.089045413 -0.18048288 -0.020184446 4278190080
0.095758721 -0.1747379 -0.0082779564 4278190080
0.095758714 -0.17473783 -0.0082779191 4278190080
0.090130985 -0.18094654 -0.020555273 4278190080
0.095758356 -0.17449386 -0.0079541057 4278190080
0.092291519 -0.18207017 -0.015304472 4278190080
0.093241788 -0.18190916 -0.015250597 4278190080
0.093223758 -0.18203136 -0.015515193 4278190080
0.089770876 -0.18161389 -0.017615525 4278190080
0.090171263 -0.18175541 -0.017745024 4278190080
0.09353213 -0.17537379 -0.0048894063 4278190080
0.090711944 -0.18060054 -0.010970261 4278190080
0.090673685 -0.18092683 -0.011621166 4278190080
0.087429881 -0.18163416 -0.014048163 4278190080
0.087429903 -0.18163419 -0.014048174 4278190080
0.083552308 -0.17893155 -0.01548481 4278190080
0.093503013 -0.17798936 -0.0085464679 4278190080
0.093502998 -0.17798929 -0.0085464232 4278190080
0.093506202 -0.17782989 -0.0083155222 4278190080
0.082049698 -0.1780439 -0.014910918 4278190080
0.085252263 -0.18010353 -0.016175425 4278190080
0.093748301 -0.17772023 -0.0085380673 4278190080
0.093748428 -0.1777202 -0.0085381083 4278190080
0.090338126 -0.18189365 -0.01479936 4278190080
0.09344472 -0.17994329 -0.011483874 4278190080
0.09294796 -0.17590842 -0.0048831552 4278190080
0.093416117 -0.18029407 -0.012113228 4278190080
0.080286935 -0.1767506 -0.014175557 4278190080
0.086732686 -0.18065524 -0.016661262 4278190080
0.086732708 -0.18065529 -0.016661281 4278190080
0.091167055 -0.1752646 -0.0012844391 4278190080
0.09349215 -0.17563772 -0.0054667294 4278190080
0.087206207 -0.18127622 -0.010887913 4278190080
0.087893888 -0.18116884 -0.010817464 4278190080
0.087893911 -0.18116884 -0.010817446 4278190080
0.084377393 -0.18059859 -0.013071559 4278190080
0.087883368 -0.1813018 -0.011054236 4278190080
0.087883383 -0.1813018 -0.011054244 4278190080
0.084970668 -0.18098883 -0.013307955 4278190080
0.091019854 -0.17724483 -0.0047569834 4278190080
0.090867341 -0.1785851 -0.0074046105 4278190080
0.090855867 -0.17913479 -0.0082032867 4278190080
0.090855882 -0.17913485 -0.0082033202 4278190080
0.0910317 -0.176579 -0.0038010776 4278190080
0.08114063 -0.17857154 -0.011807002 4278190080
0.084927976 -0.18078865 -0.010229368 4278190080
0.081651881 -0.17895682 -0.01202279 4278190080
0.088148735 -0.17925709 -0.0068311207 4278190080
0.08814875 -0.17925709 -0.0068311244 4278190080
0.088133603 -0.17987593 -0.0077427067 4278190080
0.088133618 -0.17987593 -0.0077427104 4278190080
0.088133611 -0.17987598 -0.0077427365 4278190080
0.088133626 -0.17987598 -0.0077427402 4278190080
0.088516347 -0.17528547 0.00054048374 4278190080
0.088516369 -0.17528547 0.00054048747 4278190080
0.077684537 -0.17671378 -0.0014748797 4278190080
0.079580545 -0.17908376 -0.0025071539 4278190080
0.079620555 -0.17652975 -0.00086937845 4278190080
0.079932243 -0.17903234 -0.0024590716 4278190080
0.079929106 -0.17912428 -0.0025995076 4278190080
0.076438181 -0.17572984 -0.00093780831 4278190080
0.078691825 -0.17847645 -0.005166579 4278190080
0.078691833 -0.17847644 -0.0051665977 4278190080
0.076451853 -0.17618819 -0.0040731654 4278190080
0.076451853 -0.17618817 -0.004073184 4278190080
0.079378635 -0.17893477 -0.0054418556 4278190080
0.079378627 -0.17893474 -0.0054418668 4278190080
0.075905673 -0.17563696 -0.0038082227 4278190080
0.075905666 -0.17563695 -0.0038082339 4278190080
0.079666741 -0.17494038 0.0015130602 4278190080
0.082771614 -0.17848627 -0.0025217086 4278190080
0.08275371 -0.17893377 -0.0032200143 4278190080
0.076816015 -0.17499045 0.0021743514 4278190080
0.082771629 -0.17630878 0.00038659573 4278190080
0.076822512 -0.17494141 0.0022763871 4278190080
0.07682249 -0.17494133 0.0022763237 4278190080
0.082769461 -0.17624624 0.00045795366 4278190080
0.08286269 -0.17630216 0.00042214245 4278190080
0.076307178 -0.17503896 0.0022826344 4278190080
0.076306656 -0.17503914 0.0022827126 4278190080
0.079642415 -0.17437503 0.002131369 4278190080
0.079642393 -0.17437495 0.0021313243 4278190080
0.07433179 -0.17468983 -0.00018367916 4278190080
0.074331842 -0.17468977 -0.00018367171 4278190080
0.073872373 -0.17398055 -0.0029194281 4278190080
0.073872335 -0.17398056 -0.0029194057 4278190080
0.07387238 -0.17398049 -0.0029193945 4278190080
0.073872387 -0.17398047 -0.0029194131 4278190080
0.078684285 -0.17773078 -0.0077383332 4278190080
0.076525718 -0.17535222 -0.0069037043 4278190080
0.078613453 -0.17759007 -0.007948719 4278190080
0.078680918 -0.17766061 -0.0079820529 4278190080
0.082156584 -0.18047377 -0.0064777061 4278190080
0.082156688 -0.18047374 -0.0064777099 4278190080
0.082531035 -0.17388034 0.0022770911 4278190080
0.08253102 -0.17388026 0.0022770688 4278190080
0.082527779 -0.18040949 -0.0064614303 4278190080
0.082528792 -0.18049584 -0.0065710843 4278190080
0.082528792 -0.18049587 -0.0065711066 4278190080
0.073886998 -0.17461927 0.0029579923 4278190080
0.075096667 -0.17405649 -0.0062466003 4278190080
0.085576817 -0.17790459 -0.0027288571 4278190080
0.085633099 -0.1762657 -0.00022352859 4278190080
0.085545555 -0.17856693 -0.003789302 4278190080
0.085690014 -0.17584513 0.00065824017 4278190080
0.079886511 -0.17335056 0.0048721991 4278190080
0.07714051 -0.17396411 0.0053698383 4278190080
0.074119002 -0.17310354 -0.0057806596 4278190080
0.074119002 -0.17310348 -0.005780641 4278190080
0.073336162 -0.17210592 0.00068856776 4278190080
0.073117144 -0.17240673 0.0015839674 4278190080
0.073333018 -0.17128825 -0.0021282621 4278190080
0.073333032 -0.17128824 -0.0021282807 4278190080
0.081647612 -0.17977625 -0.0092046335 4278190080
0.082651697 -0.17284037 0.0043445416 4278190080
0.081898227 -0.1798754 -0.0092882961 4278190080
0.085350432 -0.17984599 -0.006594792 4278190080
0.074396238 -0.17458694 0.0058647841 4278190080
0.074500337 -0.17251951 -0.0075471625 4278190080
0.074500337 -0.17251945 -0.0075471066 4278190080
0.085448921 -0.17341615 0.0025465973 4278190080
0.085448906 -0.17341609 0.0025465973 4278190080
0.085342824 -0.18024847 -0.0071750656 4278190080
0.085342832 -0.18024848 -0.0071750917 4278190080
0.072278798 -0.17317551 0.0036939271 4278190080
0.077690937 -0.17539886 -0.010209706 4278190080
0.076759756 -0.1744782 -0.0097627044 4278190080
0.08166863 -0.17951344 -0.010095913 4278190080
0.078938514 -0.176781 -0.010845236 4278190080
0.073382616 -0.17045805 -0.0049544908 4278190080
0.088341601 -0.17728074 -0.0031070039 4278190080
0.088341624 -0.17728074 -0.0031070001 4278190080
0.07476113 -0.17213258 -0.0087121949 4278190080
0.074761152 -0.17213252 -0.00871218 4278190080
0.088432148 -0.1759377 -0.00080409646 4278190080
0.088432163 -0.1759377 -0.00080410391 4278190080
0.088308215 -0.17804316 -0.0043130144 4278190080
0.08830823 -0.17804316 -0.0043130182 4278190080
