# .PCD v0.7 - Point Cloud Data file format
VERSION 0.7
FIELDS x y z rgba label
SIZE 4 4 4 4 4
TYPE F F F U U
COUNT 1 1 1 1 1
WIDTH 135
HEIGHT 1
VIEWPOINT 0 0 0 1 0 0 0
POINTS 135
DATA ascii
0.051428571 -0.14555731 0.18857148 4278190080 31692
0.05170384 -0.14571428 0.18857148 4278190080 31731
0.051428571 -0.14571428 0.18841828 4278190080 31691
0.051428571 -0.14455234 0.19142863 4278190080 31693
0.050841145 -0.14571428 0.18857148 4278190080 31690
0.051428571 -0.14222781 0.19428577 4278190080 31697
0.051428571 -0.14285715 0.19357583 4278190080 31695
0.057142857 -0.144976 0.19428577 4278190080 31760
0.051428571 -0.14109054 0.19714291 4278190080 31698
0.05999998 -0.14238241 0.19428577 4278190080 30143
0.059999999 -0.14238249 0.19428577 4278190080 31784
0.057142857 -0.14239699 0.19428577 4278190080 31762
0.057142857 -0.14285715 0.19402374 4278190080 31761
0.05999998 -0.14285715 0.1940977 4278190080 30139
0.059999999 -0.14285715 0.19409773 4278190080 31783
0.060234632 -0.14285715 0.19428577 4278190080 30138
0.059999999 -0.14321224 0.19428577 4278190080 31782
0.05999998 -0.14321233 0.19428577 4278190080 30137
0.054285713 -0.14183347 0.19428577 4278190080 31737
0.054285713 -0.14032823 0.19714291 4278190080 31738
0.054285713 -0.14000002 0.19784249 4278190080 28923
0.054285713 -0.14 0.19784254 4278190080 31739
0.054285713 -0.14285715 0.19364086 4278190080 31736
0.057142857 -0.13973305 0.19714291 4278190080 28927
0.057142857 -0.14 0.19711362 4278190080 31764
0.057142857 -0.14000002 0.19711357 4278190080 28926
0.057012111 -0.14 0.19714291 4278190080 31763
0.057011895 -0.14000002 0.19714291 4278190080 28925
0.064056523 -0.14 0.19714291 4278190080 30158
0.064056471 -0.14000002 0.19714291 4278190080 27235
0.059999999 -0.14 0.19642733 4278190080 31785
0.05999998 -0.14 0.19642733 4278190080 30145
0.059999999 -0.14000002 0.19642726 4278190080 28933
0.05999998 -0.14000002 0.19642727 4278190080 27222
0.065714262 -0.14 0.19781016 4278190080 30159
0.065714262 -0.14000002 0.19781022 4278190080 27238
0.065714262 -0.13837269 0.19714291 4278190080 27236
0.058439385 -0.13714288 0.19714291 4278190080 28931
0.059999999 -0.13212259 0.20285718 4278190080 26006
0.05999998 -0.13212265 0.20285718 4278190080 25511
0.068571411 -0.13714288 0.19770399 4278190080 27244
0.057142857 -0.13539954 0.20000006 4278190080 28930
0.057142857 -0.13539958 0.20000005 4278190080 25987
0.062857121 -0.14 0.19664656 4278190080 30146
0.062857121 -0.14000002 0.19664656 4278190080 27223
0.057142857 -0.13714288 0.19753991 4278190080 28929
0.059999999 -0.13614185 0.19714291 4278190080 28934
0.05999998 -0.13614191 0.19714291 4278190080 27227
0.067139752 -0.13714288 0.19714291 4278190080 27243
0.058823299 -0.13428573 0.20000005 4278190080 26001
0.058823258 -0.13428573 0.20000006 4278190080 28935
0.059999999 -0.13714288 0.19665065 4278190080 28932
0.05999998 -0.13714288 0.19665067 4278190080 27224
0.062857121 -0.13714288 0.19632015 4278190080 27225
0.065714262 -0.13714288 0.19668145 4278190080 27237
0.062857121 -0.13383779 0.19714291 4278190080 27230
0.062857121 -0.13428573 0.19686495 4278190080 27228
0.061998028 -0.13428573 0.19714291 4278190080 27226
0.062857121 -0.13046101 0.20285718 4278190080 25521
0.068571411 -0.13554634 0.19714291 4278190080 27246
0.070325665 -0.13428573 0.19714291 4278190080 27257
0.059999999 -0.13345405 0.20000006 4278190080 28937
0.059999999 -0.13345408 0.20000005 4278190080 26005
0.05999998 -0.13345408 0.20000006 4278190080 27233
0.05999998 -0.13345413 0.20000005 4278190080 25509
0.059999999 -0.13428573 0.19841717 4278190080 28936
0.05999998 -0.13428573 0.19841723 4278190080 27229
0.061177783 -0.13142858 0.20285718 4278190080 25510
0.062857121 -0.13142858 0.19958404 4278190080 27232
0.062857121 -0.13116468 0.20000006 4278190080 27234
0.062857121 -0.13116471 0.20000005 4278190080 25520
0.065714262 -0.13428573 0.19641453 4278190080 27239
0.06252785 -0.13142858 0.20000005 4278190080 25512
0.062527806 -0.13142858 0.20000006 4278190080 27231
0.068571411 -0.13428573 0.19672868 4278190080 27247
0.071428552 -0.13288146 0.19714291 4278190080 27259
0.072954156 -0.13142858 0.19714291 4278190080 27269
0.068571411 -0.13142858 0.19674169 4278190080 27249
0.065714262 -0.12778598 0.20285718 4278190080 25539
0.066345185 -0.13142858 0.19714291 4278190080 27248
0.065714262 -0.13142858 0.19730458 4278190080 27241
0.074285701 -0.12857144 0.19706708 4278190080 27272
0.065714262 -0.13174985 0.19714291 4278190080 27240
0.071428552 -0.13142858 0.19683929 4278190080 27260
0.074533463 -0.12857144 0.19714291 4278190080 27282
0.064764552 -0.12857144 0.20285718 4278190080 25532
0.074285701 -0.12912421 0.19714291 4278190080 27273
0.0658134 -0.12857144 0.20000005 4278190080 25547
0.065813348 -0.12857144 0.20000006 4278190080 27251
0.065714262 -0.12857144 0.20015056 4278190080 25534
0.065714262 -0.12864643 0.20000006 4278190080 27242
0.065714262 -0.12864646 0.20000005 4278190080 25533
0.068571411 -0.12992676 0.19714291 4278190080 27250
0.070884965 -0.12285716 0.20571433 4278190080 25577
0.068571411 -0.12528767 0.20285718 4278190080 25558
0.068137631 -0.1257143 0.20285718 4278190080 25552
0.068571411 -0.12857144 0.19772264 4278190080 27252
0.071428552 -0.12857144 0.19728617 4278190080 27262
0.074285701 -0.12743582 0.19714291 4278190080 27274
0.072944917 -0.12857144 0.19714291 4278190080 27271
0.071428552 -0.12911844 0.19714291 4278190080 27261
0.0734227 -0.12285716 0.20000006 4278190080 27276
0.073422782 -0.12285716 0.20000005 4278190080 25599
0.071428552 -0.12409188 0.20000006 4278190080 27265
0.071428552 -0.12409193 0.20000005 4278190080 25575
0.074285701 -0.12285716 0.19908804 4278190080 27277
0.074285701 -0.12235583 0.20000006 4278190080 27278
0.074285701 -0.12235587 0.20000005 4278190080 25603
0.071428552 -0.11542682 0.20000006 4278190080 24068
0.071428552 -0.11542679 0.20000005 4278190080 22699
0.071428552 -0.1257143 0.19815309 4278190080 27264
0.071428552 -0.12285716 0.20269318 4278190080 25576
0.071428552 -0.12282465 0.20285718 4278190080 25580
0.071373053 -0.12285716 0.20285718 4278190080 25574
0.071428552 -0.11428566 0.19896616 4278190080 24069
0.068571411 -0.11504813 0.20000006 4278190080 24044
0.068571411 -0.11504809 0.20000005 4278190080 22685
0.069192193 -0.1257143 0.20000005 4278190080 25570
0.069192126 -0.1257143 0.20000006 4278190080 27263
0.074285701 -0.1257143 0.19736353 4278190080 27275
0.074285701 -0.12136336 0.20285718 4278190080 25604
0.068571411 -0.11428566 0.19905217 4278190080 24045
0.068571411 -0.12620276 0.20000006 4278190080 27253
0.068571411 -0.12620282 0.20000005 4278190080 25553
0.077142835 -0.12092907 0.20000006 4278190080 27286
0.077142835 -0.12092914 0.20000005 4278190080 25627
0.077142835 -0.12285716 0.19831263 4278190080 27285
0.068571411 -0.1257143 0.20115235 4278190080 25554
0.071428552 -0.11589684 0.20285718 4278190080 22698
0.073665574 -0.11428566 0.20000005 4278190080 22720
0.073665731 -0.11428566 0.20000006 4278190080 24090
0.071428552 -0.11290056 0.19714291 4278190080 24072
0.068571411 -0.11561801 0.20285718 4278190080 22684
0.074285701 -0.11428566 0.2003994 4278190080 22719
0.068571411 -0.11310753 0.19714291 4278190080 24048
