# .PCD v0.7 - Point Cloud Data file format
VERSION 0.7
FIELDS x y z rgb
SIZE 4 4 4 4
TYPE F F F U
COUNT 1 1 1 1
WIDTH 134
HEIGHT 1
VIEWPOINT 0 0 0 1 0 0 0
POINTS 134
DATA ascii
0.04317385 -0.099804714 -0.069828987 4278190080
0.040079784 -0.097907618 -0.067935586 4278190080
0.040079784 -0.097907633 -0.067935601 4278190080
0.042735741 -0.094992757 -0.065865867 4278190080
0.043164805 -0.09761776 -0.066959031 4278190080
0.043164797 -0.097617768 -0.066959053 4278190080
0.042220421 -0.092277795 -0.065137573 4278190080
0.043189161 -0.098166004 -0.067554288 4278190080
0.041093327 -0.095166311 -0.066319562 4278190080
0.042130321 -0.097740345 -0.067199148 4278190080
0.042130262 -0.097740337 -0.067199133 4278190080
0.046421826 -0.08907827 -0.063058734 4278190080
0.044686269 -0.089164644 -0.063872151 4278190080
0.04080648 -0.092414081 -0.065573305 4278190080
0.046093531 -0.099342391 -0.069551945 4278190080
0.039650455 -0.095282346 -0.066843539 4278190080
0.046108872 -0.098487094 -0.068323381 4278190080
0.047883898 -0.088992208 -0.062419295 4278190080
0.049287871 -0.096989006 -0.065204754 4278190080
0.049287859 -0.096989006 -0.065204814 4278190080
0.049256727 -0.09726344 -0.065746412 4278190080
0.052189246 -0.097653568 -0.066535555 4278190080
0.048326757 -0.097086847 -0.065483123 4278190080
0.048326664 -0.097086847 -0.065483108 4278190080
0.04692078 -0.094600461 -0.064537957 4278190080
0.048323132 -0.091627814 -0.063469425 4278190080
0.045838926 -0.094721824 -0.064812534 4278190080
0.055083498 -0.097837754 -0.067264877 4278190080
0.052036829 -0.098526172 -0.068558067 4278190080
0.046956781 -0.091771543 -0.063849084 4278190080
0.046198666 -0.09727452 -0.066198967 4278190080
0.046198655 -0.097274527 -0.06619902 4278190080
0.054980319 -0.098088697 -0.068180248 4278190080
0.049086384 -0.098956384 -0.068965353 4278190080
0.049068913 -0.099025205 -0.069155507 4278190080
0.04865998 -0.099009603 -0.069055028 4278190080
0.051881634 -0.098770745 -0.069757439 4278190080
0.04529028 -0.091972098 -0.064225227 4278190080
0.052158684 -0.094174653 -0.06265156 4278190080
0.052158576 -0.094174668 -0.062651567 4278190080
0.052049231 -0.094184086 -0.062689148 4278190080
0.051739078 -0.091453962 -0.06188171 4278190080
0.051738985 -0.091453977 -0.061881717 4278190080
0.051532179 -0.091467306 -0.061968178 4278190080
0.055341616 -0.096288003 -0.063743599 4278190080
0.055341601 -0.096287996 -0.063743696 4278190080
0.054883733 -0.096347682 -0.063831188 4278190080
0.054883935 -0.096347652 -0.063831225 4278190080
0.054883547 -0.096347719 -0.06383118 4278190080
0.054883756 -0.09634769 -0.063831225 4278190080
0.05532638 -0.096372277 -0.063941851 4278190080
0.055326384 -0.096372321 -0.063941881 4278190080
0.051321886 -0.090214595 -0.061477631 4278190080
0.05132176 -0.09021391 -0.061477408 4278190080
0.052358314 -0.096683949 -0.064289868 4278190080
0.052358299 -0.096683942 -0.064289942 4278190080
0.051088482 -0.088827051 -0.06093692 4278190080
0.058132231 -0.096080877 -0.064533047 4278190080
0.058132246 -0.096080884 -0.064533055 4278190080
0.058132231 -0.096080914 -0.064533085 4278190080
0.05813225 -0.096080929 -0.064533092 4278190080
0.050923996 -0.08882723 -0.061041571 4278190080
0.050923921 -0.088827237 -0.061041579 4278190080
0.05091361 -0.088017918 -0.060839616 4278190080
0.050913528 -0.088017486 -0.060839511 4278190080
0.048887659 -0.094394103 -0.063989535 4278190080
0.058098797 -0.091301173 -0.058337487 4278190080
0.058098771 -0.091301166 -0.058337521 4278190080
0.058493491 -0.093890339 -0.059576049 4278190080
0.058493473 -0.093890339 -0.059576068 4278190080
0.057464674 -0.088462308 -0.058111794 4278190080
0.057464652 -0.088462308 -0.058111824 4278190080
0.055245861 -0.091439366 -0.059687637 4278190080
0.054870035 -0.09144114 -0.059922054 4278190080
0.05529657 -0.093439654 -0.060192719 4278190080
0.058430959 -0.094915874 -0.061297305 4278190080
0.058430977 -0.094915904 -0.061297316 4278190080
0.055184454 -0.088633597 -0.058981456 4278190080
0.055459831 -0.094233789 -0.060335271 4278190080
0.055461518 -0.094327137 -0.060450479 4278190080
0.05532923 -0.094239928 -0.060397722 4278190080
0.061185323 -0.094347455 -0.06180805 4278190080
0.05431775 -0.088687629 -0.059350178 4278190080
0.056927785 -0.085724846 -0.057474747 4278190080
0.056927763 -0.085724838 -0.057474773 4278190080
0.054887265 -0.085883826 -0.058233369 4278190080
0.058233306 -0.095796481 -0.063584983 4278190080
0.058233283 -0.095796481 -0.063584998 4278190080
0.05823328 -0.095796473 -0.063585088 4278190080
0.058233261 -0.095796473 -0.063585103 4278190080
0.063883536 -0.093476817 -0.062231019 4278190080
0.060958639 -0.095131509 -0.064129934 4278190080
0.060958609 -0.095131494 -0.064130068 4278190080
0.060596481 -0.088221267 -0.056937248 4278190080
0.061142828 -0.090968587 -0.057534255 4278190080
0.060249031 -0.088248968 -0.057064258 4278190080
0.060359687 -0.087132975 -0.056815304 4278190080
0.061202962 -0.091670111 -0.058133051 4278190080
0.060526632 -0.08536265 -0.056418337 4278190080
0.064088657 -0.092711054 -0.06005485 4278190080
0.059974931 -0.091134429 -0.0577108 4278190080
0.059983909 -0.085404858 -0.056620359 4278190080
0.066704653 -0.091932006 -0.061062485 4278190080
0.061303716 -0.093313903 -0.059761897 4278190080
0.062396169 -0.082235813 -0.055581622 4278190080
0.066677026 -0.087548167 -0.05536288 4278190080
0.066681325 -0.087597378 -0.05540444 4278190080
0.066614561 -0.087555297 -0.055378288 4278190080
0.069638565 -0.087129511 -0.054908723 4278190080
0.06965591 -0.088213779 -0.056259304 4278190080
0.066936433 -0.089996219 -0.057173736 4278190080
0.066274107 -0.084950417 -0.054159097 4278190080
0.069705904 -0.089377247 -0.057532109 4278190080
0.065570474 -0.084982947 -0.054497443 4278190080
0.069343567 -0.084644318 -0.053248402 4278190080
0.063682303 -0.087932229 -0.055957347 4278190080
0.072705112 -0.086820394 -0.054010265 4278190080
0.070886038 -0.084538683 -0.052624855 4278190080
0.065913498 -0.083466195 -0.054204594 4278190080
0.072484635 -0.088045448 -0.056886245 4278190080
0.064134806 -0.09058167 -0.056951363 4278190080
0.072665513 -0.086246364 -0.05346632 4278190080
0.06680648 -0.091043055 -0.059302598 4278190080
0.063116521 -0.085164621 -0.055442546 4278190080
0.072408684 -0.088688731 -0.058172517 4278190080
0.073496148 -0.086739041 -0.053784057 4278190080
0.069515452 -0.090230323 -0.059742391 4278190080
0.066204801 -0.082011901 -0.053914927 4278190080
0.065597385 -0.082067117 -0.0541136 4278190080
0.068878092 -0.081981331 -0.052309275 4278190080
0.072585613 -0.084518231 -0.051607549 4278190080
0.064118683 -0.091969721 -0.058895901 4278190080
0.069867469 -0.081960283 -0.051748548 4278190080
0.072194971 -0.08925923 -0.060136184 4278190080
