# .PCD v0.7 - Point Cloud Data file format
VERSION 0.7
FIELDS x y z rgb
SIZE 4 4 4 4
TYPE F F F U
COUNT 1 1 1 1
WIDTH 258
HEIGHT 1
VIEWPOINT 0 0 0 1 0 0 0
POINTS 258
DATA ascii
0.046478637 -0.19409804 0.01017323 4278190080
0.04505901 -0.19456454 0.010203262 4278190080
0.043566022 -0.19522247 0.010246281 4278190080
0.049383689 -0.19313607 0.010111269 4278190080
0.046452828 -0.19457266 0.011034247 4278190080
0.052432545 -0.18947037 0.0058635008 4278190080
0.052432559 -0.18947037 0.0058635306 4278190080
0.043601163 -0.19456792 0.0091602057 4278190080
0.04944279 -0.19202673 0.0083724177 4278190080
0.052495196 -0.18829089 0.0040564444 4278190080
0.052495211 -0.18829088 0.0040564435 4278190080
0.050588321 -0.18684359 0.0010911711 4278190080
0.049484272 -0.19125131 0.0071187085 4278190080
0.049484268 -0.19125137 0.0071187317 4278190080
0.046590656 -0.19199799 0.0068496699 4278190080
0.043656997 -0.19354424 0.0072678197 4278190080
0.043656994 -0.19354428 0.0072678411 4278190080
0.046578456 -0.19222967 0.0071817879 4278190080
0.046578452 -0.19222973 0.0071818111 4278190080
0.049596589 -0.18911433 0.0041089496 4278190080
0.037916508 -0.19424805 0.0044445675 4278190080
0.049580127 -0.18942693 0.0045556221 4278190080
0.047122546 -0.19200109 0.0071668765 4278190080
0.04712268 -0.19200109 0.007166896 4278190080
0.040749773 -0.19457798 0.0070694936 4278190080
0.04113026 -0.19457754 0.0073351432 4278190080
0.041130364 -0.19457754 0.0073351618 4278190080
0.037898317 -0.1945843 0.0050336784 4278190080
0.040739231 -0.19477896 0.0073483987 4278190080
0.040739231 -0.19477902 0.007348421 4278190080
0.037121311 -0.19458686 0.0044666845 4278190080
0.046728373 -0.18941715 0.0027552657 4278190080
0.04376293 -0.19154449 0.0042674281 4278190080
0.04271815 -0.19199212 0.0042966567 4278190080
0.040839911 -0.19289206 0.00435571 4278190080
0.043739021 -0.19199435 0.0049596336 4278190080
0.046677485 -0.19037823 0.0041915216 4278190080
0.049717743 -0.186841 0.00053597894 4278190080
0.049696881 -0.18723579 0.0011168113 4278190080
0.049804498 -0.18519983 -0.0018860707 4278190080
0.048805349 -0.18942003 0.0041288109 4278190080
0.045740366 -0.18681411 -0.0017810427 4278190080
0.043876477 -0.18940057 0.0010546437 4278190080
0.040943682 -0.19093877 0.001358469 4278190080
0.043869525 -0.18953046 0.0012660399 4278190080
0.044153839 -0.18939963 0.0012574699 4278190080
0.046892013 -0.18632153 -0.0018132068 4278190080
0.046865735 -0.18681847 -0.0010777125 4278190080
0.038036048 -0.19200456 0.00092353486 4278190080
0.038677931 -0.19199997 0.0014280379 4278190080
0.038017485 -0.19235475 0.0014514215 4278190080
0.046944037 -0.18421093 -0.0048212586 4278190080
0.047002934 -0.18421122 -0.0047855349 4278190080
0.047004264 -0.18418609 -0.0048228772 4278190080
0.046785157 -0.18834114 0.0011885604 4278190080
0.040887438 -0.19199467 0.0030114781 4278190080
0.039946988 -0.18939979 -0.0016118884 4278190080
0.038123399 -0.19035539 -0.0015489627 4278190080
0.041051626 -0.18889575 -0.0016448954 4278190080
0.044151597 -0.18422326 -0.0069050482 4278190080
0.04407616 -0.18564336 -0.0047271047 4278190080
0.044183459 -0.18361428 -0.0077295201 4278190080
0.044014137 -0.18681696 -0.0029991707 4278190080
0.041024916 -0.1894016 -0.00090376567 4278190080
0.035195101 -0.1918169 -0.0014529023 4278190080
0.043968443 -0.18768139 -0.0017240839 4278190080
0.034831665 -0.19201681 -0.0014397148 4278190080
0.035184652 -0.19201316 -0.0011456572 4278190080
0.032333888 -0.19205533 -0.0037062885 4278190080
0.032333903 -0.19205533 -0.0037062326 4278190080
0.043931816 -0.18160746 -0.010730877 4278190080
0.041300356 -0.18424112 -0.009109634 4278190080
0.038216099 -0.18864001 -0.0045299577 4278190080
0.041244201 -0.1853108 -0.0076174196 4278190080
0.041363195 -0.18303044 -0.010636983 4278190080
0.041162867 -0.18683313 -0.005179028 4278190080
0.041143976 -0.18718792 -0.0046253754 4278190080
0.038173735 -0.1894224 -0.0031516086 4278190080
0.041436885 -0.18159927 -0.012311394 4278190080
0.04177675 -0.18682551 -0.0046493178 4278190080
0.043146536 -0.18423 -0.0076887971 4278190080
0.035387263 -0.18824087 -0.0074248174 4278190080
0.03310284 -0.18947268 -0.0073436182 4278190080
0.0324523 -0.18984544 -0.0073189903 4278190080
0.032452285 -0.1898455 -0.0073189866 4278190080
0.038422905 -0.18474929 -0.010523356 4278190080
0.038307477 -0.18685979 -0.0075153941 4278190080
0.038311921 -0.18685757 -0.0075155385 4278190080
0.038311806 -0.18685977 -0.0075122332 4278190080
0.039298609 -0.18424676 -0.010556555 4278190080
0.035322711 -0.18945044 -0.0055051912 4278190080
0.02951856 -0.19142392 -0.0072149457 4278190080
0.035286527 -0.19012891 -0.0044320291 4278190080
0.036597043 -0.18943956 -0.0044774283 4278190080
0.029483089 -0.19209403 -0.0062158527 4278190080
0.028394522 -0.1921085 -0.0071696313 4278190080
0.039473504 -0.18159598 -0.013601358 4278190080
0.039473608 -0.181596 -0.013601339 4278190080
0.03235478 -0.19166455 -0.0043309079 4278190080
0.032354761 -0.19166459 -0.0043309052 4278190080
0.032559164 -0.18782572 -0.010320764 4278190080
0.032559149 -0.18782575 -0.010320762 4278190080
0.034485284 -0.18687773 -0.010383039 4278190080
0.029620612 -0.18950348 -0.010168025 4278190080
0.035488609 -0.18633959 -0.010418505 4278190080
0.035460502 -0.18687333 -0.0096540889 4278190080
0.038555995 -0.18216597 -0.013563587 4278190080
0.038555998 -0.18216589 -0.013563612 4278190080
0.032471679 -0.18947838 -0.0078574065 4278190080
0.032471694 -0.18947837 -0.007857332 4278190080
0.038585424 -0.18160558 -0.014347109 4278190080
0.038448922 -0.18424851 -0.011161312 4278190080
0.026677541 -0.19128607 -0.010091967 4278190080
0.030915704 -0.18690734 -0.013249562 4278190080
0.030915808 -0.18690735 -0.013249543 4278190080
0.032657832 -0.18598206 -0.013310523 4278190080
0.032657813 -0.18598211 -0.01331052 4278190080
0.032657828 -0.18598212 -0.0133105 4278190080
0.03265781 -0.18598217 -0.013310497 4278190080
0.0267733 -0.18950488 -0.013077461 4278190080
0.026773298 -0.18950494 -0.013077439 4278190080
0.026670633 -0.18956459 -0.013073513 4278190080
0.026670722 -0.1895646 -0.013073495 4278190080
0.026770199 -0.18956353 -0.012990026 4278190080
0.032609314 -0.18689369 -0.011895399 4278190080
0.032609329 -0.18689369 -0.011895332 4278190080
0.035688259 -0.18161564 -0.016468819 4278190080
0.035172842 -0.18425067 -0.013425558 4278190080
0.035172932 -0.18425067 -0.013425539 4278190080
0.035734043 -0.18161525 -0.016431943 4278190080
0.035735779 -0.18158144 -0.016471097 4278190080
0.035612416 -0.18395577 -0.013445136 4278190080
0.035612412 -0.18395583 -0.013445113 4278190080
0.035597302 -0.18424599 -0.013067889 4278190080
0.029622089 -0.18947577 -0.010211834 4278190080
0.02957272 -0.18950412 -0.010209961 4278190080
0.029963376 -0.18297186 -0.019247498 4278190080
0.029895274 -0.18430275 -0.017784975 4278190080
0.026907399 -0.18695654 -0.016701709 4278190080
0.02750989 -0.18694453 -0.016115334 4278190080
0.029837027 -0.18541025 -0.016217148 4278190080
0.026885659 -0.18736702 -0.016087279 4278190080
0.032038711 -0.18164156 -0.019335698 4278190080
0.031670973 -0.18428342 -0.01629176 4278190080
0.032883082 -0.18164706 -0.018840842 4278190080
0.032883096 -0.18164706 -0.01884079 4278190080
0.032908302 -0.18115275 -0.019367969 4278190080
0.03290832 -0.18115269 -0.019367972 4278190080
0.032780014 -0.18363278 -0.016334776 4278190080
0.032780033 -0.18363273 -0.016334778 4278190080
0.023945043 -0.18909287 -0.015973175 4278190080
0.029758167 -0.18691452 -0.014143529 4278190080
0.032746404 -0.18428089 -0.015521782 4278190080
0.032746419 -0.18428089 -0.015521738 4278190080
0.032606408 -0.17900898 -0.022378745 4278190080
0.032606512 -0.17900896 -0.022378746 4278190080
0.021098273 -0.1890787 -0.018841751 4278190080
0.03301964 -0.1790065 -0.022060907 4278190080
0.033019625 -0.1790065 -0.022060962 4278190080
0.03301964 -0.1790065 -0.02206099 4278190080
0.033019625 -0.1790065 -0.022061039 4278190080
0.023217382 -0.18959959 -0.015939498 4278190080
0.023919063 -0.18958646 -0.015269035 4278190080
0.033032712 -0.17875595 -0.02239548 4278190080
0.03303273 -0.17875591 -0.022395484 4278190080
0.021068497 -0.18963863 -0.017975679 4278190080
0.029723052 -0.18758282 -0.013204958 4278190080
0.029723048 -0.18758287 -0.013204936 4278190080
0.025042513 -0.18436627 -0.022022527 4278190080
0.027118862 -0.1829091 -0.022119392 4278190080
0.024162594 -0.18497127 -0.021982331 4278190080
0.028638184 -0.181679 -0.022201467 4278190080
0.030168442 -0.17902547 -0.024281938 4278190080
0.030168442 -0.17902547 -0.024281861 4278190080
0.027044183 -0.18432818 -0.020100515 4278190080
0.030086417 -0.1806045 -0.022273002 4278190080
0.0302126 -0.17816962 -0.025303114 4278190080
0.021205954 -0.18704474 -0.021879144 4278190080
0.021239355 -0.18704394 -0.02184451 4278190080
0.021204822 -0.18706572 -0.021843065 4278190080
0.030031603 -0.18165088 -0.020840067 4278190080
0.018653754 -0.18711904 -0.024706647 4278190080
0.027007774 -0.18501966 -0.019111417 4278190080
0.018355943 -0.1871246 -0.024991006 4278190080
0.028060766 -0.18431115 -0.01915846 4278190080
0.018345766 -0.18731582 -0.024693603 4278190080
0.03030497 -0.176384 -0.02748869 4278190080
0.024056885 -0.18696623 -0.018982247 4278190080
0.024039298 -0.18697873 -0.018981416 4278190080
0.024056241 -0.1869783 -0.018963475 4278190080
0.021564063 -0.18017599 -0.030905081 4278190080
0.022876965 -0.17914312 -0.030973947 4278190080
0.022877039 -0.1791431 -0.030973949 4278190080
0.021479942 -0.18180935 -0.028989088 4278190080
0.021616202 -0.17915423 -0.031995915 4278190080
0.021616202 -0.17915422 -0.031995986 4278190080
0.024467168 -0.17912269 -0.029590974 4278190080
0.024467168 -0.17912267 -0.029591054 4278190080
0.022625394 -0.18179031 -0.027929496 4278190080
0.024400255 -0.18041745 -0.028020993 4278190080
0.024533724 -0.17782605 -0.031061787 4278190080
0.019372825 -0.18183459 -0.030794598 4278190080
0.021429121 -0.18279909 -0.027862124 4278190080
0.018629048 -0.18184412 -0.031440962 4278190080
0.026102895 -0.17909761 -0.02810896 4278190080
0.026102984 -0.17909759 -0.028108962 4278190080
0.024330568 -0.18176037 -0.026328985 4278190080
0.018595811 -0.18249592 -0.030750424 4278190080
0.021698339 -0.1775672 -0.033947069 4278190080
0.021698337 -0.17756727 -0.03394714 4278190080
0.019085467 -0.17916246 -0.033841461 4278190080
0.019085377 -0.17916247 -0.033841461 4278190080
0.019085541 -0.17916247 -0.033841535 4278190080
0.019085452 -0.17916249 -0.033841535 4278190080
0.024603574 -0.17647481 -0.03270426 4278190080
0.018750599 -0.17944641 -0.033822495 4278190080
0.018750595 -0.1794465 -0.033822566 4278190080
0.018764939 -0.17916995 -0.034169406 4278190080
0.018764939 -0.17916994 -0.034169499 4278190080
0.023225395 -0.17650038 -0.03401798 4278190080
0.02322547 -0.17650039 -0.034018051 4278190080
0.026313981 -0.17644852 -0.031153597 4278190080
0.027370922 -0.17804585 -0.028179176 4278190080
0.019167295 -0.18448395 -0.027749941 4278190080
0.027317805 -0.17907412 -0.026937388 4278190080
0.027317805 -0.17907414 -0.026937308 4278190080
0.024272822 -0.18287922 -0.024989042 4278190080
0.01849271 -0.18449537 -0.028377168 4278190080
0.021343432 -0.18445198 -0.025798734 4278190080
0.025727272 -0.18173906 -0.025065053 4278190080
0.027454311 -0.17643146 -0.030126661 4278190080
0.018465979 -0.18500921 -0.027714964 4278190080
0.0222826 -0.18443333 -0.024885438 4278190080
0.021753024 -0.17652783 -0.035423446 4278190080
0.024661193 -0.17536353 -0.03409379 4278190080
0.024661191 -0.17536359 -0.034093861 4278190080
0.027241822 -0.18054345 -0.025144778 4278190080
0.027502984 -0.17548475 -0.031217903 4278190080
0.021305155 -0.18518628 -0.024835262 4278190080
0.01577758 -0.18184972 -0.033466309 4278190080
0.015787417 -0.1816573 -0.033675283 4278190080
0.015787415 -0.18165736 -0.033675354 4278190080
0.0159062 -0.18452783 -0.030615084 4278190080
0.015537321 -0.18185191 -0.033662308 4278190080
0.015537388 -0.18185192 -0.033662383 4278190080
0.015641797 -0.18452936 -0.030817769 4278190080
0.027181137 -0.18170838 -0.023624856 4278190080
0.015632767 -0.18470383 -0.030603416 4278190080
0.020135812 -0.17655219 -0.036882438 4278190080
0.018854596 -0.17748825 -0.036820143 4278190080
0.029452315 -0.17639896 -0.028288998 4278190080
0.029130885 -0.17904295 -0.025244849 4278190080
0.02913099 -0.17904294 -0.025244847 4278190080
0.024193628 -0.18438084 -0.022814579 4278190080
0.02182148 -0.17519769 -0.036972798 4278190080
0.026701013 -0.17380758 -0.034197453 4278190080
0.026701087 -0.17380758 -0.034197528 4278190080
0.027590828 -0.17378931 -0.033323441 4278190080
