# .PCD v0.7 - Point Cloud Data file format
VERSION 0.7
FIELDS x y z rgb
SIZE 4 4 4 4
TYPE F F F U
COUNT 1 1 1 1
WIDTH 258
HEIGHT 1
VIEWPOINT 0 0 0 1 0 0 0
POINTS 258
DATA ascii
0.083600923 -0.20289782 -0.030461865 4278190080
0.082355857 -0.20371951 -0.030370208 4278190080
0.081083357 -0.2047403 -0.030321153 4278190080
0.08614713 -0.20120944 -0.030647328 4278190080
0.083879463 -0.20359439 -0.029825855 4278190080
0.087275669 -0.19576667 -0.033790439 4278190080
0.087275691 -0.19576669 -0.033790417 4278190080
0.080723047 -0.20380977 -0.031104468 4278190080
0.085560426 -0.19966266 -0.031880669 4278190080
0.086661682 -0.1941345 -0.03506314 4278190080
0.086661696 -0.19413447 -0.03506314 4278190080
0.083846271 -0.19244912 -0.037001543 4278190080
0.085141324 -0.19857007 -0.03277817 4278190080
0.085141338 -0.19857015 -0.03277817 4278190080
0.08248277 -0.19996019 -0.032826085 4278190080
0.080113962 -0.20229688 -0.032508902 4278190080
0.080113977 -0.20229693 -0.032508895 4278190080
0.082598001 -0.20027401 -0.032597221 4278190080
0.082598016 -0.20027407 -0.032597218 4278190080
0.084091052 -0.19569147 -0.034839503 4278190080
0.07413289 -0.20366478 -0.034451902 4278190080
0.084246188 -0.19611447 -0.034532048 4278190080
0.083064206 -0.19991246 -0.032618262 4278190080
0.08306434 -0.19991244 -0.032618266 4278190080
0.077518031 -0.2039745 -0.032588594 4278190080
0.077942684 -0.20394941 -0.032403193 4278190080
0.077942789 -0.20394939 -0.032403193 4278190080
0.074325308 -0.20415206 -0.03402064 4278190080
0.077615827 -0.204244 -0.032398578 4278190080
0.077615842 -0.20424405 -0.032398578 4278190080
0.073452562 -0.20419759 -0.03442248 4278190080
0.08110629 -0.19634709 -0.03574077 4278190080
0.079087883 -0.19954844 -0.034608044 4278190080
0.078194574 -0.2002508 -0.03457009 4278190080
0.076609641 -0.20160261 -0.034528814 4278190080
0.079322755 -0.20017184 -0.034119867 4278190080
0.081598073 -0.19766627 -0.034737229 4278190080
0.082886472 -0.19251883 -0.03737583 4278190080
0.083086342 -0.19305801 -0.036972061 4278190080
0.08205387 -0.19027521 -0.039061245 4278190080
0.083407179 -0.19619222 -0.034801342 4278190080
0.078550965 -0.19288856 -0.038877726 4278190080
0.077988751 -0.19660303 -0.036854897 4278190080
0.07559175 -0.19889824 -0.036640778 4278190080
0.078059286 -0.19678643 -0.03670327 4278190080
0.078300387 -0.19658688 -0.036711048 4278190080
0.079535827 -0.19211511 -0.038919788 4278190080
0.079788424 -0.1927951 -0.038407505 4278190080
0.072945304 -0.20053528 -0.036950268 4278190080
0.073674425 -0.20050611 -0.036584072 4278190080
0.073125571 -0.20101732 -0.036580395 4278190080
0.07843411 -0.18927754 -0.040979102 4278190080
0.078498632 -0.18927239 -0.040955521 4278190080
0.078485817 -0.18923797 -0.040981568 4278190080
0.080565408 -0.19488241 -0.036826104 4278190080
0.076149702 -0.20036991 -0.035468776 4278190080
0.073620334 -0.19688018 -0.038696595 4278190080
0.072099559 -0.19826925 -0.038679659 4278190080
0.074558035 -0.19610876 -0.038728014 4278190080
0.075287163 -0.18943039 -0.042466968 4278190080
0.076026931 -0.19139619 -0.040932558 4278190080
0.074995682 -0.18861994 -0.043023646 4278190080
0.076621369 -0.19299941 -0.039731089 4278190080
0.074813396 -0.1967987 -0.038213532 4278190080
0.069641426 -0.20043151 -0.038631823 4278190080
0.077059761 -0.19418095 -0.038843945 4278190080
0.069340423 -0.2007172 -0.038631126 4278190080
0.069745123 -0.20070504 -0.038413987 4278190080
0.066434748 -0.20075987 -0.040343821 4278190080
0.066434771 -0.20075989 -0.040343776 4278190080
0.073628522 -0.18596187 -0.045064487 4278190080
0.072056621 -0.18956847 -0.044059098 4278190080
0.071123615 -0.19579057 -0.040857174 4278190080
0.072578967 -0.19100511 -0.043040555 4278190080
0.071503408 -0.1879905 -0.045062408 4278190080
0.07339637 -0.19314328 -0.041299768 4278190080
0.073583424 -0.19363725 -0.040907606 4278190080
0.071573146 -0.19692668 -0.039846689 4278190080
0.070880279 -0.18616411 -0.046127118 4278190080
0.074104324 -0.19312641 -0.040904768 4278190080
0.074146904 -0.18947752 -0.043034483 4278190080
0.067663923 -0.19533634 -0.042946827 4278190080
0.065766498 -0.19710895 -0.042935427 4278190080
0.06523101 -0.19763432 -0.042938408 4278190080
0.06523101 -0.1976344 -0.042938422 4278190080
0.069090635 -0.1903969 -0.045085467 4278190080
0.070132121 -0.19325155 -0.043016136 4278190080
0.070135847 -0.19324827 -0.043016206 4278190080
0.070136979 -0.19325131 -0.043013893 4278190080
0.069811299 -0.18968898 -0.045081258 4278190080
0.068309203 -0.19702993 -0.041580152 4278190080
0.062793501 -0.19990756 -0.042922799 4278190080
0.068670303 -0.19797881 -0.040816881 4278190080
0.069762632 -0.19697812 -0.04082831 4278190080
0.063135847 -0.20082664 -0.042225234 4278190080
0.061877184 -0.2008532 -0.042939387 4278190080
0.068707146 -0.1863125 -0.047007143 4278190080
0.068707243 -0.18631247 -0.04700714 4278190080
0.066225246 -0.20021141 -0.04078947 4278190080
0.066225238 -0.20021145 -0.040789478 4278190080
0.064201415 -0.19486694 -0.045032062 4278190080
0.0642014 -0.19486697 -0.045032069 4278190080
0.065821216 -0.19345716 -0.045067303 4278190080
0.061791256 -0.1972468 -0.045005016 4278190080
0.066655204 -0.19268131 -0.045073114 4278190080
0.066920504 -0.19340406 -0.04454653 4278190080
0.067961656 -0.18709484 -0.047023825 4278190080
0.067961641 -0.18709478 -0.047023825 4278190080
0.06504555 -0.19713351 -0.043312304 4278190080
0.06504558 -0.19713353 -0.043312237 4278190080
0.067687586 -0.1863417 -0.047559071 4278190080
0.068860352 -0.18974234 -0.045506198 4278190080
0.059379861 -0.19970118 -0.045084432 4278190080
0.061752737 -0.19360518 -0.047161557 4278190080
0.061752833 -0.19360515 -0.047161557 4278190080
0.063202851 -0.19226658 -0.047174238 4278190080
0.063202843 -0.19226663 -0.047174245 4278190080
0.063202865 -0.19226664 -0.047174238 4278190080
0.063202858 -0.1922667 -0.047174245 4278190080
0.058392316 -0.19716007 -0.047243811 4278190080
0.058392324 -0.19716014 -0.047243811 4278190080
0.058307998 -0.19724382 -0.047244534 4278190080
0.058308087 -0.19724381 -0.04724453 4278190080
0.058422275 -0.19724053 -0.047182769 4278190080
0.063681722 -0.19353358 -0.046173491 4278190080
0.063681751 -0.1935336 -0.046173431 4278190080
0.064431697 -0.18650967 -0.049064588 4278190080
0.065209053 -0.18996379 -0.04708064 4278190080
0.065209143 -0.18996377 -0.047080636 4278190080
0.064483903 -0.18650781 -0.049037624 4278190080
0.064469278 -0.18646476 -0.049062401 4278190080
0.065561399 -0.18956855 -0.047066465 4278190080
0.065561414 -0.18956861 -0.047066461 4278190080
0.065696634 -0.18995012 -0.046815671 4278190080
0.061776515 -0.19720806 -0.045036174 4278190080
0.061735891 -0.19724798 -0.045036413 4278190080
0.058609292 -0.18848401 -0.051194604 4278190080
0.059166521 -0.19015431 -0.050291993 4278190080
0.057131607 -0.1937169 -0.049734451 4278190080
0.057841424 -0.19371587 -0.049283728 4278190080
0.059712708 -0.19164853 -0.049216285 4278190080
0.057341885 -0.19428064 -0.049304906 4278190080
0.060286477 -0.18667592 -0.051145207 4278190080
0.061205566 -0.19009638 -0.049186423 4278190080
0.061207548 -0.18659812 -0.050823543 4278190080
0.061207574 -0.18659814 -0.050823499 4278190080
0.061004363 -0.18598251 -0.051143911 4278190080
0.06100437 -0.18598245 -0.0511439 4278190080
0.062115125 -0.18918656 -0.049177069 4278190080
0.062115133 -0.18918651 -0.049177062 4278190080
0.054930344 -0.19669367 -0.049329899 4278190080
0.060441434 -0.1936615 -0.047806934 4278190080
0.062410183 -0.19002992 -0.048644271 4278190080
0.062410209 -0.19002993 -0.04864423 4278190080
0.059559297 -0.1832099 -0.053138103 4278190080
0.059559394 -0.18320985 -0.053138118 4278190080
0.051538512 -0.19660464 -0.051525615 4278190080
0.06002713 -0.1831895 -0.052908938 4278190080
0.0600271 -0.18318948 -0.052908987 4278190080
0.060027108 -0.18318945 -0.052909013 4278190080
0.060027082 -0.18318945 -0.052909058 4278190080
0.054351166 -0.19736533 -0.04935861 4278190080
0.055175036 -0.19736122 -0.048845492 4278190080
0.059908278 -0.18285744 -0.053133681 4278190080
0.059908286 -0.18285739 -0.05313367 4278190080
0.05183192 -0.19738191 -0.050913826 4278190080
0.06076926 -0.19456093 -0.047164761 4278190080
0.060769275 -0.19456099 -0.047164761 4278190080
0.053558726 -0.190276 -0.053462051 4278190080
0.055208895 -0.18834889 -0.053376928 4278190080
0.05285665 -0.19108096 -0.053494584 4278190080
0.056380238 -0.1867854 -0.053268295 4278190080
0.0567929 -0.18332373 -0.054516666 4278190080
0.056792922 -0.18332376 -0.054516599 4278190080
0.055911094 -0.19026646 -0.051989369 4278190080
0.057518393 -0.18538682 -0.053192478 4278190080
0.056415588 -0.18222561 -0.05517175 4278190080
0.050498251 -0.19381344 -0.05364741 4278190080
0.050538082 -0.19381389 -0.053620409 4278190080
0.050510097 -0.19384363 -0.053621128 4278190080
0.058023069 -0.18678424 -0.052220896 4278190080
0.047413915 -0.19373758 -0.05588251 4278190080
0.056254514 -0.19120243 -0.051308297 4278190080
0.047064289 -0.19373938 -0.0561001 4278190080
0.057098102 -0.19025366 -0.051273752 4278190080
0.047164876 -0.19400531 -0.055889655 4278190080
0.055615447 -0.1799182 -0.056589421 4278190080
0.053881887 -0.19382484 -0.051394105 4278190080
0.053867944 -0.19384132 -0.051394872 4278190080
0.053888235 -0.19384164 -0.051380821 4278190080
0.047274847 -0.1847536 -0.059673272 4278190080
0.048293687 -0.1834307 -0.059587914 4278190080
0.048293754 -0.18343067 -0.059587926 4278190080
0.047987193 -0.18683952 -0.058453489 4278190080
0.046854571 -0.18348075 -0.060336627 4278190080
0.046854552 -0.18348072 -0.060336687 4278190080
0.050130039 -0.18338951 -0.058554459 4278190080
0.050130021 -0.18338947 -0.05855453 4278190080
0.049324244 -0.18682466 -0.057648946 4278190080
0.050706748 -0.18505822 -0.057540186 4278190080
0.04957635 -0.18174852 -0.059476335 4278190080
0.045560006 -0.18690041 -0.059797272 4278190080
0.048410833 -0.18809335 -0.057745855 4278190080
0.044701211 -0.18691979 -0.060280181 4278190080
0.05203237 -0.18336102 -0.057435043 4278190080
0.052032452 -0.18336099 -0.057435058 4278190080
0.051319875 -0.18680795 -0.056429304 4278190080
0.044968061 -0.18773018 -0.059861951 4278190080
0.046141379 -0.18142739 -0.061604634 4278190080
0.046141375 -0.18142743 -0.061604723 4278190080
0.044012234 -0.18362929 -0.061644316 4278190080
0.044012152 -0.18362932 -0.061644301 4278190080
0.044012289 -0.18362926 -0.061644398 4278190080
0.044012208 -0.18362929 -0.061644387 4278190080
0.048973542 -0.18000582 -0.060538556 4278190080
0.043756891 -0.18398589 -0.061671887 4278190080
0.043756887 -0.18398595 -0.061671976 4278190080
0.043631006 -0.18362612 -0.061899271 4278190080
0.04363098 -0.18362609 -0.061899353 4278190080
0.047356069 -0.18001463 -0.061543401 4278190080
0.047356125 -0.1800146 -0.061543487 4278190080
0.050962944 -0.17997625 -0.059367098 4278190080
0.053004436 -0.18203263 -0.057337277 4278190080
0.046634763 -0.19028389 -0.057866167 4278190080
0.053461261 -0.18335639 -0.056536444 4278190080
0.053461283 -0.18335642 -0.056536376 4278190080
0.051814295 -0.18824495 -0.055568311 4278190080
0.045846611 -0.1902919 -0.058343027 4278190080
0.049160972 -0.19024122 -0.056396294 4278190080
0.052943878 -0.18678327 -0.055474903 4278190080
0.052287724 -0.17995495 -0.058592621 4278190080
0.046084687 -0.19096579 -0.057904281 4278190080
0.050267279 -0.19023943 -0.055694416 4278190080
0.045627609 -0.18002358 -0.062618792 4278190080
0.048468675 -0.17856109 -0.061447997 4278190080
0.048468672 -0.17856112 -0.061448082 4278190080
0.054118298 -0.18525334 -0.055375278 4278190080
0.05187938 -0.17875166 -0.059281774 4278190080
0.049505226 -0.19120933 -0.055753436 4278190080
0.041510854 -0.1870998 -0.061702307 4278190080
0.041430868 -0.18685903 -0.061830513 4278190080
0.041430864 -0.18685907 -0.061830599 4278190080
0.042862333 -0.19036159 -0.060013041 4278190080
0.041236322 -0.18710905 -0.061846167 4278190080
0.041236371 -0.18710902 -0.061846249 4278190080
0.042563152 -0.19037479 -0.06015902 4278190080
0.054662429 -0.18678667 -0.054363355 4278190080
0.042641517 -0.19060048 -0.060019754 4278190080
0.043748222 -0.1800532 -0.063719615 4278190080
0.042738121 -0.18127689 -0.063782573 4278190080
0.054617558 -0.17992654 -0.057199284 4278190080
0.055581085 -0.18333647 -0.055248398 4278190080
0.055581182 -0.18333644 -0.055248413 4278190080
0.052566312 -0.19028541 -0.054064743 4278190080
0.045050085 -0.17832816 -0.063601993 4278190080
0.050062381 -0.1765514 -0.061329175 4278190080
0.050062433 -0.17655137 -0.06132926 4278190080
0.05111251 -0.17655174 -0.060655922 4278190080
