# .PCD v0.7 - Point Cloud Data file format
VERSION 0.7
FIELDS x y z rgba label
SIZE 4 4 4 4 4
TYPE F F F U U
COUNT 1 1 1 1 1
WIDTH 526
HEIGHT 1
VIEWPOINT 0 0 0 1 0 0 0
POINTS 526
DATA ascii
0.18427896 -0.023434939 0.083799243 4278190080 23310
0.18549591 -0.023572104 0.083323419 4278190080 23394
0.18665193 -0.022535963 0.08436206 4278190080 23302
0.17984796 -0.02517873 0.080436654 4278190080 23776
0.18071103 -0.02527348 0.081104979 4278190080 23704
0.18397401 -0.02287071 0.082813486 4278190080 23266
0.19477616 -0.013600472 0.07479661 4278190080 22779
0.19457822 -0.015396741 0.077267252 4278190080 22797
0.18986003 -0.020290088 0.082628459 4278190080 23030
0.1948608 -0.013867475 0.075263672 4278190080 22790
0.18152077 -0.024064358 0.081055045 4278190080 23696
0.19143128 -0.018134961 0.079819269 4278190080 22985
0.18396975 -0.022619141 0.08237768 4278190080 23325
0.18462074 -0.022407653 0.082535967 4278190080 23265
0.18537521 -0.022213429 0.082732297 4278190080 23273
0.19212714 -0.012187603 0.071697921 4278190080 22940
0.19252211 -0.011623243 0.071107902 4278190080 22931
0.18509959 -0.0096874563 0.063443333 4278190080 23473
0.18994343 -0.019027838 0.080292322 4278190080 23063
0.18988319 -0.019278634 0.080705948 4278190080 23082
0.1914506 -0.013190638 0.072720833 4278190080 22972
0.18743508 -0.020280343 0.080630369 4278190080 23222
0.18603562 -0.021234255 0.081571057 4278190080 23276
0.18666117 -0.009986667 0.065371543 4278190080 23218
0.18905723 -0.019593058 0.080577575 4278190080 23102
0.19006389 -0.01494841 0.074500687 4278190080 23062
0.18717091 -0.019465718 0.079211831 4278190080 23225
0.19016717 -0.012514209 0.070952646 4278190080 23068
0.18760514 -0.019339034 0.079752281 4278190080 23197
0.18562509 -0.021030337 0.080451056 4278190080 23382
0.18966606 -0.017173082 0.077571556 4278190080 23090
0.18657032 -0.020221947 0.080351934 4278190080 23366
0.1869882 -0.010280187 0.065898143 4278190080 23213
0.1874232 -0.020022258 0.080184057 4278190080 23237
0.18547931 -0.010604181 0.065184392 4278190080 23342
0.18847278 -0.011614164 0.068565771 4278190080 23152
0.18707535 -0.015325201 0.07332325 4278190080 23198
0.18538988 -0.018831387 0.077385463 4278190080 23372
0.18644482 -0.013278592 0.069864757 4278190080 23318
0.18524978 -0.019435406 0.077665314 4278190080 23425
0.18349338 -0.021140561 0.079278454 4278190080 23606
0.18455596 -0.011595063 0.065699317 4278190080 23525
0.18236655 -0.011187138 0.064020045 4278190080 23611
0.18523069 -0.011334179 0.066153273 4278190080 23396
0.17871934 -0.024627641 0.079235516 4278190080 24019
0.17922355 -0.024296509 0.079683274 4278190080 24021
0.18441065 -0.011322946 0.065219387 4278190080 23502
0.18867524 -0.014070022 0.07222233 4278190080 23148
0.18701105 -0.011655654 0.067762613 4278190080 23228
0.18223117 -0.01091736 0.063545898 4278190080 23556
0.18585443 -0.020183394 0.079744443 4278190080 23301
0.18206897 -0.010644916 0.063065842 4278190080 23621
0.17838404 -0.023991432 0.078464814 4278190080 24132
0.17739809 -0.025167979 0.077436067 4278190080 24259
0.18274227 -0.020838896 0.078219928 4278190080 23585
0.17815016 -0.024254141 0.078595556 4278190080 24039
0.186149 -0.015975038 0.073492974 4278190080 23286
0.18610692 -0.014090672 0.07074073 4278190080 23278
0.1822388 -0.021595914 0.079008996 4278190080 23684
0.18541934 -0.018354787 0.076307148 4278190080 23440
0.17422517 -0.027321385 0.073451258 4278190080 24538
0.18490262 -0.012149405 0.067039527 4278190080 23432
0.17849611 -0.023033196 0.078021772 4278190080 24059
0.18470469 -0.016713465 0.073425986 4278190080 23408
0.18069996 -0.021790717 0.077708937 4278190080 23863
0.1789816 -0.023039717 0.078544751 4278190080 23968
0.18310353 -0.020050511 0.077375241 4278190080 23539
0.18543051 -0.013492278 0.069399647 4278190080 23402
0.18036352 -0.019338451 0.07397747 4278190080 23788
0.17856307 -0.021158909 0.075326197 4278190080 23953
0.17742713 -0.022411207 0.076294623 4278190080 24134
0.18285392 -0.017118718 0.072794139 4278190080 23645
0.17978442 -0.020944996 0.075998098 4278190080 23997
0.17527941 -0.023780758 0.075932778 4278190080 24362
0.18078166 -0.02017913 0.075438708 4278190080 23826
0.18331267 -0.016334537 0.071964003 4278190080 23616
0.18337975 -0.01660003 0.072427027 4278190080 23541
0.18126677 -0.0199176 0.075419284 4278190080 23702
0.18377496 -0.015289396 0.070684917 4278190080 23544
0.17598137 -0.023834839 0.076523475 4278190080 24340
0.18248221 -0.018672343 0.074964598 4278190080 23593
0.18181801 -0.019667964 0.075513281 4278190080 23758
0.18392365 -0.013728036 0.068351083 4278190080 23472
0.17691872 -0.023681087 0.076944411 4278190080 24183
0.18193856 -0.019945187 0.075995252 4278190080 23735
0.17837371 -0.022766966 0.077411428 4278190080 24112
0.18269657 -0.01921647 0.075915307 4278190080 23567
0.17265379 -0.026336733 0.073568799 4278190080 24854
0.17198008 -0.026560033 0.072174527 4278190080 24900
0.17890131 -0.014935934 0.066728033 4278190080 24029
0.17885274 -0.016565146 0.069002844 4278190080 24015
0.17917007 -0.015490655 0.067683384 4278190080 24045
0.17177178 -0.022290023 0.07166215 4278190080 24710
0.17945078 -0.014664955 0.066789716 4278190080 24018
0.17704561 -0.019417401 0.071843535 4278190080 24207
0.17233901 -0.022311792 0.072191589 4278190080 24657
0.16947933 -0.023587808 0.071282461 4278190080 24994
0.1800175 -0.013652866 0.065678217 4278190080 23846
0.18024743 -0.013939431 0.066180713 4278190080 23885
0.17411603 -0.022116985 0.073701382 4278190080 24418
0.16966897 -0.024322994 0.071490854 4278190080 25025
0.18021072 -0.012566229 0.064317919 4278190080 23801
0.17937072 -0.011626934 0.06261497 4278190080 24063
0.18082978 -0.016674435 0.070410952 4278190080 23938
0.16759931 -0.024744131 0.069686212 4278190080 25083
0.16883025 -0.02481292 0.070784926 4278190080 25089
0.17266299 -0.023535496 0.073660962 4278190080 24701
0.16703317 -0.024792226 0.068802178 4278190080 25068
0.17267632 -0.023806501 0.073408686 4278190080 24825
0.17707793 -0.010820338 0.060040522 4278190080 24244
0.18091471 -0.016944058 0.07087899 4278190080 23913
0.18092099 -0.012565495 0.064854637 4278190080 23811
0.18055694 -0.012007006 0.063875735 4278190080 23895
0.17253917 -0.02386209 0.073696189 4278190080 24662
0.16804451 -0.025587529 0.067874968 4278190080 25143
0.17705521 -0.010553894 0.059596766 4278190080 24161
0.1819651 -0.014702166 0.068571113 4278190080 23591
0.16884622 -0.025671493 0.070221387 4278190080 25088
0.17969783 -0.019026378 0.073228151 4278190080 24005
0.17121707 -0.02532796 0.072187208 4278190080 24929
0.18205936 -0.013358985 0.066754013 4278190080 23543
0.18102095 -0.011458948 0.063460514 4278190080 23894
0.16829856 -0.026222516 0.068696462 4278190080 25080
0.16754383 -0.026075816 0.066730514 4278190080 25142
0.18091093 -0.011189019 0.062989719 4278190080 23797
0.17413332 -0.023694109 0.074884899 4278190080 24587
0.17492974 -0.023072502 0.075264059 4278190080 24422
0.16740198 -0.02627811 0.067361407 4278190080 25079
0.17005201 -0.026603876 0.069833145 4278190080 25017
0.16814728 -0.026539931 0.066982001 4278190080 25162
0.17803472 -0.021044444 0.075011507 4278190080 24115
0.18208739 -0.012005192 0.064916454 4278190080 23617
0.16678685 -0.026016204 0.065418892 4278190080 25252
0.16779712 -0.026550313 0.066522479 4278190080 25165
0.16656974 -0.026052676 0.065000273 4278190080 25263
0.18297589 -0.013644988 0.067798674 4278190080 23571
0.17282535 -0.019510118 0.068733074 4278190080 24704
0.17554581 -0.016497282 0.06649331 4278190080 24348
0.17183593 -0.020596879 0.069460586 4278190080 24686
0.17501469 -0.017701235 0.068092294 4278190080 24458
0.16958348 -0.022358451 0.069471695 4278190080 25027
0.17637028 -0.016071117 0.066757955 4278190080 24206
0.16954935 -0.022421608 0.069934368 4278190080 25022
0.17703232 -0.013011509 0.063183002 4278190080 24246
0.17480302 -0.018561978 0.068981215 4278190080 24405
0.16734211 -0.024331907 0.067796282 4278190080 25164
0.17656419 -0.016624993 0.067684352 4278190080 24162
0.16724738 -0.024742026 0.067486919 4278190080 25150
0.17731312 -0.011639399 0.061411899 4278190080 24198
0.16764408 -0.024735913 0.067962013 4278190080 25139
0.16628672 -0.025574127 0.065201588 4278190080 25258
0.17104588 -0.019160826 0.066352554 4278190080 24965
0.1750064 -0.014446631 0.062861852 4278190080 24444
0.1752277 -0.013175823 0.061549827 4278190080 24374
0.16932072 -0.020582831 0.067152344 4278190080 25065
0.17408173 -0.016304519 0.065025464 4278190080 24625
0.1750299 -0.014828525 0.063752122 4278190080 24369
0.16996823 -0.02040273 0.067747153 4278190080 25021
0.16682841 -0.022314724 0.067254052 4278190080 25249
0.17581573 -0.013165145 0.06204468 4278190080 24321
0.17127161 -0.019679092 0.067528658 4278190080 24891
0.16613799 -0.02290936 0.0672011 4278190080 25242
0.17613199 -0.011935038 0.060864042 4278190080 24253
0.17600866 -0.011396404 0.059964351 4278190080 24154
0.17579086 -0.010406356 0.058031749 4278190080 24330
0.16591977 -0.023754479 0.06663397 4278190080 25288
0.16306296 -0.025410479 0.060611252 4278190080 25497
0.16791591 -0.022148019 0.06847766 4278190080 25076
0.17652859 -0.013296495 0.063141271 4278190080 24213
0.16665539 -0.02326932 0.067788154 4278190080 25234
0.17638709 -0.010303854 0.058657359 4278190080 24159
0.17281552 -0.015878625 0.0634657 4278190080 24721
0.1682962 -0.020201981 0.065925814 4278190080 25078
0.17280935 -0.016151164 0.063896656 4278190080 24694
0.16628946 -0.021755006 0.065872632 4278190080 25230
0.17399423 -0.010423857 0.056607459 4278190080 24631
0.17237528 -0.016988952 0.064725392 4278190080 24685
0.16349445 -0.023805529 0.063332163 4278190080 25522
0.17379111 -0.015179406 0.063219473 4278190080 24620
0.16875866 -0.020194178 0.066415109 4278190080 25094
0.16726805 -0.021296812 0.066640958 4278190080 25073
0.16293702 -0.024935415 0.06118777 4278190080 25546
0.17131151 -0.015690895 0.062204108 4278190080 24917
0.17246911 -0.014607967 0.061246809 4278190080 24869
0.17101015 -0.017099714 0.06392964 4278190080 24880
0.1634602 -0.023018265 0.063521244 4278190080 25476
0.1714755 -0.016809691 0.063975424 4278190080 24883
0.16800225 -0.020245127 0.065215632 4278190080 25158
0.17351042 -0.010727672 0.056588892 4278190080 24573
0.17334539 -0.014497562 0.061784852 4278190080 24684
0.16835916 -0.019935209 0.065511502 4278190080 25098
0.16396615 -0.022747647 0.064562008 4278190080 25432
0.17359573 -0.014341 0.061874535 4278190080 24638
0.16441563 -0.021216422 0.063588351 4278190080 25421
0.16140395 -0.023739366 0.061190821 4278190080 25839
0.16222557 -0.02301448 0.062462665 4278190080 25557
0.1676085 -0.01922719 0.063532904 4278190080 25173
0.17132372 -0.01459473 0.060478251 4278190080 24898
0.17031294 -0.016266348 0.062106069 4278190080 24909
0.16351435 -0.022323152 0.063378267 4278190080 25485
0.1616101 -0.024363969 0.060254276 4278190080 26416
0.16776507 -0.019190105 0.063974328 4278190080 25133
0.16911474 -0.017993759 0.063559107 4278190080 25038
0.16239202 -0.023902614 0.061954856 4278190080 25595
0.16365999 -0.018748138 0.059617084 4278190080 25462
0.16409291 -0.01863179 0.059958279 4278190080 25434
0.16803333 -0.014658885 0.057813782 4278190080 25100
0.16593511 -0.017503349 0.059665143 4278190080 25285
0.16619349 -0.017456172 0.06007462 4278190080 25229
0.16920406 -0.011782661 0.054779861 4278190080 25062
0.1632468 -0.019864092 0.060896643 4278190080 25470
0.16233744 -0.020454798 0.060784329 4278190080 25559
0.15917872 -0.022029843 0.058451105 4278190080 25754
0.16857532 -0.015448792 0.059539467 4278190080 25029
0.16422865 -0.019469924 0.061292268 4278190080 25417
0.16606127 -0.018346997 0.06099987 4278190080 25291
0.16919115 -0.015444566 0.060043458 4278190080 25034
0.15908609 -0.023602307 0.056210581 4278190080 26584
0.16986437 -0.0093835127 0.051904455 4278190080 25007
0.1706937 -0.010398701 0.053587914 4278190080 24933
0.16228694 -0.02134457 0.061723322 4278190080 25581
0.16029447 -0.02258685 0.060304582 4278190080 25930
0.16928498 -0.0086767375 0.050392441 4278190080 25040
0.16780935 -0.017658738 0.061616316 4278190080 25155
0.16002715 -0.023871373 0.057569116 4278190080 26016
0.16022649 -0.023825889 0.057970759 4278190080 26426
0.15876864 -0.024361882 0.054118093 4278190080 26197
0.17096831 -0.0095147947 0.052700859 4278190080 24942
0.15974134 -0.024563326 0.055819172 4278190080 26957
0.16651817 -0.018948792 0.062716998 4278190080 25223
0.16060834 -0.024160737 0.058498375 4278190080 26091
0.17155394 -0.010146088 0.053962696 4278190080 24921
0.15924607 -0.024790201 0.054302622 4278190080 25869
0.16103384 -0.024073912 0.059314582 4278190080 27034
0.16889809 -0.017138686 0.06220663 4278190080 25043
0.16801946 -0.018237937 0.062538669 4278190080 25151
0.16610919 -0.019723991 0.063153088 4278190080 25246
0.15813054 -0.024639295 0.052239131 4278190080 26360
0.16944766 -0.0076992218 0.04923686 4278190080 24974
0.1601769 -0.020085415 0.058221865 4278190080 26188
0.16394252 -0.017609956 0.058298923 4278190080 25534
0.16741453 -0.013682026 0.055817373 4278190080 25140
0.15849657 -0.021388967 0.057424475 4278190080 26869
0.16152301 -0.019488154 0.058749206 4278190080 26077
0.15585807 -0.023042813 0.050771214 4278190080 26600
0.15755349 -0.022971636 0.054308098 4278190080 27048
0.15820098 -0.022267075 0.056464039 4278190080 25846
0.16882595 -0.01009664 0.052113302 4278190080 25033
0.15842994 -0.022225294 0.056867477 4278190080 27056
0.15488404 -0.022923768 0.048800293 4278190080 26465
0.16868368 -0.0089854579 0.050362419 4278190080 25050
0.15620905 -0.0235165 0.050576877 4278190080 25805
0.16083272 -0.020370115 0.059173759 4278190080 26990
0.15752822 -0.023618618 0.052995272 4278190080 26270
0.16208768 -0.019722324 0.059221718 4278190080 25700
0.16866863 -0.012912891 0.055488974 4278190080 25070
0.15956452 -0.02131445 0.058740705 4278190080 25759
0.15850267 -0.023238275 0.055646013 4278190080 26613
0.16534539 -0.014255025 0.054302428 4278190080 25359
0.16098683 -0.018054351 0.056438498 4278190080 26282
0.15917589 -0.019216621 0.05633368 4278190080 26629
0.16384825 -0.016230168 0.056097254 4278190080 25501
0.15927283 -0.019498864 0.056786902 4278190080 25910
0.16388234 -0.016507687 0.056540754 4278190080 25503
0.15634996 -0.021185355 0.054759502 4278190080 26415
0.16483614 -0.015827721 0.056510031 4278190080 25435
0.15592025 -0.021765072 0.053367734 4278190080 27086
0.15565209 -0.021875609 0.052624993 4278190080 27090
0.16387242 -0.017053941 0.057410292 4278190080 25457
0.16782145 -0.0087749483 0.049017459 4278190080 25112
0.15641202 -0.022182085 0.053553507 4278190080 25775
0.15610075 -0.022361919 0.0524561 4278190080 26044
0.1634154 -0.017624645 0.057817794 4278190080 25516
0.15960239 -0.020083569 0.057728272 4278190080 26288
0.16385727 -0.017325856 0.057842676 4278190080 25472
0.15529838 -0.022688951 0.050240554 4278190080 26268
0.15658057 -0.022779236 0.052636169 4278190080 26799
0.15742505 -0.021879584 0.05585492 4278190080 25847
0.16246656 -0.015951963 0.054550674 4278190080 25562
0.16038549 -0.017515844 0.055077452 4278190080 26559
0.16567434 -0.012441287 0.052159701 4278190080 25333
0.16570599 -0.012719237 0.05259905 4278190080 25296
0.15545966 -0.020526411 0.053718049 4278190080 26787
0.16137128 -0.017204147 0.055574477 4278190080 25824
0.16239962 -0.016489226 0.055407695 4278190080 25549
0.1651815 -0.013862608 0.053895734 4278190080 25420
0.16331223 -0.01597614 0.055188216 4278190080 25518
0.16705289 -0.0081884731 0.04781089 4278190080 25213
0.1669322 -0.0078346608 0.046928175 4278190080 25268
0.16683209 -0.0075523569 0.046478592 4278190080 25241
0.1668486 -0.011223624 0.051763013 4278190080 25266
0.15594701 -0.020861363 0.054246977 4278190080 26259
0.15388015 -0.02224021 0.047783639 4278190080 26183
0.15980372 -0.017253552 0.054162774 4278190080 26651
0.15251276 -0.021176049 0.04663863 4278190080 26032
0.15408975 -0.020852057 0.051045574 4278190080 26273
0.1507566 -0.020437948 0.043799538 4278190080 26166
0.15931243 -0.017810782 0.054564696 4278190080 26397
0.14933935 -0.019127222 0.042132329 4278190080 29022
0.15984845 -0.017529011 0.054604486 4278190080 26212
0.14846979 -0.018287923 0.04151953 4278190080 33103
0.15374103 -0.021658996 0.048691608 4278190080 26846
0.15423128 -0.021359421 0.050474875 4278190080 26834
0.1496961 -0.019539814 0.042236794 4278190080 32298
0.16249087 -0.015682202 0.054119993 4278190080 25575
0.15212472 -0.021412447 0.045240127 4278190080 26916
0.15436345 -0.021304419 0.05084008 4278190080 26269
0.16085494 -0.016950035 0.054667808 4278190080 26281
0.16660565 -0.0089960331 0.048251998 4278190080 25250
0.16607074 -0.011296641 0.050858125 4278190080 25279
0.15204568 -0.021474093 0.044894766 4278190080 26734
0.16132605 -0.016653219 0.054691564 4278190080 25965
0.16466707 -0.01361667 0.052997988 4278190080 25423
0.15643482 -0.016780555 0.050517499 4278190080 26571
0.15709741 -0.017047949 0.051418141 4278190080 25794
0.16061705 -0.014671792 0.051496852 4278190080 26052
0.15414713 -0.018256094 0.050106805 4278190080 26335
0.16334338 -0.012085643 0.049474161 4278190080 25496
0.15624808 -0.017624823 0.051399939 4278190080 25915
0.16300341 -0.01284481 0.050569829 4278190080 25560
0.15940551 -0.0161287 0.052353486 4278190080 26868
0.15323885 -0.018876223 0.049741957 4278190080 26649
0.156304 -0.017895354 0.051832609 4278190080 26864
0.15583384 -0.018174157 0.051812083 4278190080 26457
0.16448632 -0.010785297 0.04898176 4278190080 25409
0.16410851 -0.011652613 0.049857359 4278190080 25429
0.1650949 -0.0093019186 0.047627024 4278190080 25424
0.16453902 -0.011336555 0.049858119 4278190080 25415
0.16515718 -0.0095807817 0.048072722 4278190080 25428
0.14963795 -0.018922035 0.045999389 4278190080 27223
0.16416851 -0.012203503 0.050733309 4278190080 25447
0.15357465 -0.019439517 0.050634407 4278190080 26272
0.14951567 -0.018909557 0.045235712 4278190080 27272
0.16413429 -0.012620947 0.050844982 4278190080 25529
0.15056117 -0.01938892 0.045262128 4278190080 26333
0.15102403 -0.019709405 0.04574544 4278190080 27092
0.15423304 -0.019381784 0.051445473 4278190080 26518
0.15773183 -0.017845849 0.053171132 4278190080 25860
0.15343794 -0.019753464 0.050682694 4278190080 26841
0.15606679 -0.018730778 0.052701853 4278190080 26975
0.153694 -0.019715147 0.051072124 4278190080 25779
0.15080211 -0.019824088 0.045048513 4278190080 26124
0.15408924 -0.019696482 0.051491972 4278190080 26486
0.1530927 -0.020260815 0.049681563 4278190080 26612
0.14989135 -0.01919925 0.043378435 4278190080 35442
0.15179816 -0.020406872 0.046361446 4278190080 25961
0.15334821 -0.020148667 0.050404295 4278190080 26994
0.15367347 -0.020046113 0.051144172 4278190080 26493
0.14971624 -0.019176515 0.042964764 4278190080 32821
0.16591476 -0.0069978978 0.045037694 4278190080 25306
0.16579141 -0.0067161908 0.044586219 4278190080 25330
0.16420291 -0.013449055 0.052167177 4278190080 25517
0.16520891 -0.011861929 0.051208839 4278190080 25448
0.15001111 -0.019581046 0.043052919 4278190080 35473
0.15363441 -0.020524532 0.050538585 4278190080 25780
0.15516718 -0.019622609 0.052739851 4278190080 26524
0.14896001 -0.018713187 0.042021398 4278190080 29314
0.14960431 -0.019658899 0.043449335 4278190080 27218
0.15390363 -0.020414185 0.051268335 4278190080 26217
0.15239544 -0.017478734 0.047528096 4278190080 25862
0.15984458 -0.013862093 0.049695939 4278190080 25932
0.15179905 -0.017805507 0.047161896 4278190080 26158
0.14957651 -0.017829811 0.044883776 4278190080 27224
0.15255029 -0.01775513 0.047966227 4278190080 26469
0.15299611 -0.017738476 0.048384417 4278190080 26601
0.15197508 -0.018084086 0.047601845 4278190080 26717
0.16419807 -0.0099441567 0.047633246 4278190080 25446
0.15101609 -0.018504871 0.046509221 4278190080 25934
0.1491863 -0.018506454 0.04441008 4278190080 27250
0.16001934 -0.014419333 0.050592907 4278190080 26619
0.15479934 -0.0099703465 0.038697582 4278190080 26982
0.15718716 -0.0087009715 0.039010171 4278190080 26884
0.1552653 -0.0091460925 0.037841931 4278190080 26933
0.15752257 -0.010233543 0.041936256 4278190080 26260
0.15645495 -0.011098021 0.042365108 4278190080 25719
0.15432723 -0.011824998 0.041203301 4278190080 26343
0.1580724 -0.0096642254 0.041508146 4278190080 26790
0.15704194 -0.0081639085 0.03814904 4278190080 25952
0.15336514 -0.011120247 0.039168186 4278190080 25796
0.15562159 -0.011707463 0.042401507 4278190080 26558
0.15609898 -0.0082617691 0.037360389 4278190080 26667
0.15432274 -0.012083753 0.041616946 4278190080 26538
0.15853815 -0.0080180243 0.039359067 4278190080 25857
0.15307142 -0.012198486 0.040439513 4278190080 26763
0.152531 -0.011457186 0.038808797 4278190080 26071
0.15894407 -0.0076955007 0.039328262 4278190080 27084
0.15709068 -0.011600367 0.043645069 4278190080 26164
0.15210418 -0.012005415 0.039240286 4278190080 26572
0.15396206 -0.012903129 0.042469889 4278190080 25946
0.15348543 -0.012933356 0.042064924 4278190080 26162
0.15891774 -0.010100955 0.043175019 4278190080 26482
0.15570089 -0.012499537 0.043668386 4278190080 25742
0.15995696 -0.0084013306 0.041442722 4278190080 26196
0.1522779 -0.010744875 0.037222508 4278190080 26699
0.15344419 -0.0090684341 0.035887949 4278190080 26815
0.15226489 -0.013041296 0.040892508 4278190080 25873
0.15843597 -0.010944586 0.044037189 4278190080 26967
0.15178852 -0.011288652 0.037650608 4278190080 26514
0.15740736 -0.0064428649 0.036341339 4278190080 25976
0.1588922 -0.010634201 0.044027206 4278190080 26721
0.15759815 -0.011830341 0.044491306 4278190080 26176
0.16049449 -0.0080838716 0.041433863 4278190080 26370
0.15964146 -0.0065015373 0.038392499 4278190080 26770
0.15806204 -0.011525599 0.044484813 4278190080 26917
0.15609309 -0.012720764 0.044489861 4278190080 25750
0.16048391 -0.0088942265 0.042729855 4278190080 25938
0.15474759 -0.0072938288 0.034879137 4278190080 26718
0.15326671 -0.0085426029 0.035049256 4278190080 25980
0.15880166 -0.0057393201 0.036669336 4278190080 26037
0.15135124 -0.013608607 0.040918533 4278190080 26310
0.15397117 -0.013938596 0.044124935 4278190080 26702
0.15043297 -0.012654629 0.03852617 4278190080 26205
0.15049179 -0.01215626 0.037728045 4278190080 27040
0.15513027 -0.0067177312 0.034420814 4278190080 26825
0.15107465 -0.010870761 0.036103193 4278190080 26163
0.15272774 -0.014292879 0.043337375 4278190080 26814
0.15945406 -0.011135414 0.045321833 4278190080 26262
0.15674487 -0.005699391 0.034670331 4278190080 26705
0.16100681 -0.0057841809 0.03873774 4278190080 25749
0.15089887 -0.014142412 0.04133556 4278190080 26296
0.16149788 -0.0085260766 0.043146849 4278190080 27057
0.16173999 -0.0068246592 0.040919706 4278190080 26001
0.15240493 -0.0086374683 0.034304596 4278190080 26290
0.15662475 -0.013219759 0.045759935 4278190080 26024
0.15185346 -0.014604232 0.042947192 4278190080 26299
0.16102555 -0.0096630277 0.044462625 4278190080 26386
0.15848152 -0.0049266187 0.035359073 4278190080 26327
0.15709589 -0.013187222 0.0461827 4278190080 25802
0.15436418 -0.014421799 0.04535421 4278190080 26609
0.15012945 -0.014207947 0.040572647 4278190080 26679
0.14978762 -0.012705097 0.037511207 4278190080 35223
0.16220579 -0.0061601689 0.040484589 4278190080 25703
0.15944363 -0.011671981 0.046179786 4278190080 26129
0.15049741 -0.010393521 0.034911647 4278190080 26639
0.15838137 -0.0046567926 0.03492425 4278190080 26371
0.1505935 -0.014941172 0.042174026 4278190080 26455
0.14936437 -0.012665395 0.037042018 4278190080 30785
0.16143562 -0.0098832231 0.045315463 4278190080 25791
0.15355971 -0.015003965 0.045373693 4278190080 26487
0.15928859 -0.0042626741 0.03527426 4278190080 26993
0.14967966 -0.014487107 0.040029094 4278190080 30495
0.1552572 -0.0056058462 0.03310585 4278190080 26429
0.16257098 -0.0055496763 0.040013056 4278190080 25625
0.14983913 -0.010915664 0.034976337 4278190080 31888
0.1624375 -0.0052717384 0.039562102 4278190080 25697
0.15373172 -0.006617377 0.032880887 4278190080 26362
0.15192106 -0.015376503 0.044179689 4278190080 25968
0.15154068 -0.015407361 0.043787714 4278190080 26517
0.16284655 -0.0057771546 0.040703759 4278190080 25587
0.15112092 -0.015433247 0.043391481 4278190080 26334
0.14971502 -0.014850581 0.040403064 4278190080 28610
0.15814514 -0.013130663 0.047053654 4278190080 27066
0.16298211 -0.0077710226 0.043418117 4278190080 25594
0.15967733 -0.0039273496 0.035229839 4278190080 25745
0.16020402 -0.0038634283 0.035628419 4278190080 26892
0.15155883 -0.015663793 0.044196974 4278190080 26792
0.15582238 -0.014607724 0.047039732 4278190080 26546
0.16074419 -0.0037993209 0.036030851 4278190080 25818
0.16101781 -0.01102014 0.04663353 4278190080 25819
0.14930893 -0.01087174 0.034489099 4278190080 28849
0.1554199 -0.014903206 0.047046367 4278190080 27050
0.15958729 -0.01249108 0.047494624 4278190080 25790
0.16354135 -0.0055167633 0.040944785 4278190080 25511
0.16366044 -0.0060666623 0.041827548 4278190080 25508
0.15190244 -0.0073332596 0.032228522 4278190080 26803
0.15292479 -0.015854906 0.045830466 4278190080 26635
0.14813527 -0.012903712 0.036375549 4278190080 33897
0.14972876 -0.015930876 0.041499995 4278190080 33732
0.15110952 -0.0079430742 0.03232009 4278190080 25844
0.15373947 -0.0157991 0.046642791 4278190080 26214
0.15450679 -0.0051323632 0.031882223 4278190080 26837
0.16387966 -0.0051776315 0.040906165 4278190080 25475
0.16403863 -0.0054569454 0.041360725 4278190080 25510
0.15254518 -0.0064527625 0.031716164 4278190080 25876
0.14789204 -0.012526112 0.035597149 4278190080 33786
0.1476426 -0.013562711 0.036970869 4278190080 33093
0.16311082 -0.0095401797 0.045889534 4278190080 25471
0.15700573 -0.0037101312 0.032429773 4278190080 25944
0.15594827 -0.015146091 0.047901265 4278190080 26981
0.15524556 -0.0044873338 0.031779226 4278190080 26008
0.16338293 -0.0037988634 0.038679749 4278190080 25466
0.16085416 -0.0029104645 0.035094965 4278190080 26318
0.16413662 -0.0074551892 0.04406663 4278190080 25489
0.14918303 -0.01622545 0.041348401 4278190080 35164
0.15471542 -0.015760036 0.047492191 4278190080 26525
0.15779726 -0.014239375 0.048347652 4278190080 26454
0.15438154 -0.0048687379 0.031459957 4278190080 26152
0.16137283 -0.0028418831 0.035494756 4278190080 26796
0.14796574 -0.015369228 0.0395694 4278190080 28863
0.16109133 -0.011841239 0.047950275 4278190080 26232
0.14982179 -0.016581381 0.043487042 4278190080 26746
0.16421103 -0.0045631323 0.040430654 4278190080 25482
0.15685527 -0.01482656 0.048332147 4278190080 25798
0.15238217 -0.0061896057 0.03129717 4278190080 26218
0.16152255 -0.011524434 0.047945298 4278190080 26643
0.15159732 -0.016686227 0.04582965 4278190080 26444
0.16471912 -0.0053653633 0.041846067 4278190080 25427
0.15923274 -0.013612374 0.048800606 4278190080 27041
0.15964809 -0.0025052626 0.033430345 4278190080 26474
0.15226851 -0.0059293727 0.030882362 4278190080 26747
0.15090096 -0.017000917 0.04545477 4278190080 25912
0.16066128 -0.0023656737 0.034213267 4278190080 26305
0.15271613 -0.0056189783 0.030835079 4278190080 27029
0.15696731 -0.015102952 0.04877552 4278190080 26011
0.14769153 -0.011446792 0.033755459 4278190080 33631
0.16416816 -0.0089050019 0.045894552 4278190080 25520
0.15339115 -0.016607663 0.047482163 4278190080 27020
0.14963742 -0.017133268 0.043932926 4278190080 26103
0.15256441 -0.016912926 0.047073614 4278190080 26522
0.16348545 -0.0026337521 0.03731079 4278190080 25528
0.15793577 -0.014785895 0.049224302 4278190080 26618
0.14844361 -0.0097337952 0.032124721 4278190080 27927
0.15976278 -0.013584536 0.049249336 4278190080 26339
0.1509928 -0.0065989653 0.030622382 4278190080 26895
0.1464493 -0.014143444 0.036670908 4278190080 30600
0.15247215 -0.0053531136 0.030411744 4278190080 26715
0.15516496 -0.016257612 0.048748419 4278190080 26099
0.14723471 -0.011406993 0.033292916 4278190080 31101
0.14639485 -0.013085033 0.03523431 4278190080 30003
0.16412832 -0.0096663721 0.047189288 4278190080 25411
0.1481019 -0.017165849 0.041050229 4278190080 34531
0.15383247 -0.016844653 0.048312999 4278190080 26809
0.16564183 -0.0061589163 0.043699153 4278190080 25329
0.15599212 -0.0029733367 0.030760845 4278190080 26580
0.16365021 -0.010667985 0.047711454 4278190080 25469
0.14651181 -0.015557637 0.038112883 4278190080 30290
