# .PCD v0.7 - Point Cloud Data file format
VERSION 0.7
FIELDS x y z rgb
SIZE 4 4 4 4
TYPE F F F U
COUNT 1 1 1 1
WIDTH 152
HEIGHT 1
VIEWPOINT 0 0 0 1 0 0 0
POINTS 152
DATA ascii
0.091105051 -0.16555397 0.029013155 4278190080
0.092245728 -0.16549677 0.031016767 4278190080
0.092771761 -0.16547319 0.031871978 4278190080
0.087287404 -0.16570511 0.023294307 4278190080
0.091013454 -0.16269672 0.028896136 4278190080
0.089458272 -0.16276501 0.026402034 4278190080
0.089184642 -0.16277401 0.026036916 4278190080
0.095019564 -0.1689499 0.034877229 4278190080
0.095019571 -0.16894977 0.034877241 4278190080
0.094925605 -0.16825819 0.034848783 4278190080
0.09492562 -0.16825819 0.034848798 4278190080
0.092307657 -0.16264842 0.030762842 4278190080
0.08654771 -0.16574927 0.021822326 4278190080
0.095034219 -0.16825406 0.035007123 4278190080
0.085911527 -0.16864744 0.020553015 4278190080
0.086426914 -0.17152278 0.020451402 4278190080
0.08643575 -0.1710884 0.020653706 4278190080
0.09371113 -0.1683487 0.031991113 4278190080
0.086486556 -0.16861695 0.021603525 4278190080
0.089396246 -0.16561089 0.026716055 4278190080
0.088987172 -0.16562505 0.026153212 4278190080
0.087447003 -0.16856384 0.023411496 4278190080
0.086521812 -0.17151584 0.020671329 4278190080
0.087681189 -0.17439607 0.020791017 4278190080
0.087681159 -0.17439605 0.020791017 4278190080
0.08933492 -0.16847438 0.026599832 4278190080
0.089118823 -0.16848317 0.02627033 4278190080
0.089050703 -0.18232135 0.0211174 4278190080
0.089095794 -0.18008336 0.022341918 4278190080
0.087882347 -0.17725566 0.020908307 4278190080
0.087988302 -0.17143075 0.023529636 4278190080
0.088543274 -0.18012516 0.021026747 4278190080
0.089318261 -0.16928312 0.026303373 4278190080
0.091335572 -0.16841422 0.02913052 4278190080
0.091824442 -0.18574198 0.025290703 4278190080
0.092185646 -0.16839142 0.030138416 4278190080
0.089452878 -0.17717281 0.023766873 4278190080
0.089763276 -0.18003477 0.023884438 4278190080
0.089199707 -0.17509827 0.023681609 4278190080
0.089820735 -0.17135353 0.026388872 4278190080
0.089155942 -0.17719042 0.02317857 4278190080
0.089216307 -0.1743027 0.023888264 4278190080
0.089216307 -0.17430271 0.023888234 4278190080
0.089097738 -0.17430991 0.023649199 4278190080
0.089097738 -0.17430989 0.023649199 4278190080
0.090560213 -0.18290719 0.024003219 4278190080
0.092463195 -0.18568678 0.02697942 4278190080
0.089275174 -0.17137755 0.025512509 4278190080
0.09047135 -0.17422283 0.026507288 4278190080
0.090471335 -0.17422281 0.026507288 4278190080
0.092099629 -0.1724862 0.029298313 4278190080
0.091338024 -0.17995201 0.02674303 4278190080
0.090835139 -0.17708591 0.026624985 4278190080
0.091884829 -0.18275309 0.026858488 4278190080
0.091897383 -0.18281932 0.026861217 4278190080
0.091883458 -0.18282034 0.026828956 4278190080
0.092124775 -0.17126642 0.029739972 4278190080
0.091779359 -0.17127904 0.029248416 4278190080
0.092003763 -0.17703453 0.02850097 4278190080
0.092439272 -0.17414853 0.029366856 4278190080
0.092439257 -0.17414851 0.029366856 4278190080
0.091943286 -0.17991924 0.027865207 4278190080
0.093657546 -0.17120281 0.03210777 4278190080
0.092064895 -0.1741662 0.028735735 4278190080
0.092064895 -0.17416622 0.028735712 4278190080
0.097634457 -0.17105509 0.037826985 4278190080
0.094973862 -0.17114194 0.034293935 4278190080
0.097824186 -0.17104888 0.038079556 4278190080
0.097824201 -0.17104888 0.038079653 4278190080
0.10061323 -0.17382051 0.041719273 4278190080
0.10061323 -0.1738205 0.041719288 4278190080
0.094913445 -0.17402831 0.033618148 4278190080
0.094913445 -0.17402829 0.033618186 4278190080
0.092916884 -0.17986935 0.029601626 4278190080
0.09414012 -0.17406848 0.032225765 4278190080
0.09414009 -0.17406847 0.032225762 4278190080
0.092592083 -0.17700708 0.029484024 4278190080
0.099938966 -0.17384332 0.040804181 4278190080
0.099938951 -0.17384331 0.040804181 4278190080
0.095383994 -0.17112331 0.034966733 4278190080
0.095383935 -0.17112331 0.034966718 4278190080
0.097582087 -0.18258289 0.035655379 4278190080
0.097582072 -0.18258289 0.035655282 4278190080
0.097388811 -0.18258755 0.035438899 4278190080
0.097388752 -0.18258755 0.035438884 4278190080
0.097563356 -0.18347342 0.035475414 4278190080
0.097563356 -0.18347374 0.035475414 4278190080
0.097563364 -0.18347381 0.035475433 4278190080
0.097563356 -0.18347412 0.035475429 4278190080
0.099510051 -0.18251656 0.038298827 4278190080
0.097642846 -0.17970523 0.036118414 4278190080
0.097642832 -0.17970525 0.036118325 4278190080
0.097877882 -0.18545337 0.035556909 4278190080
0.097877838 -0.18545337 0.035556894 4278190080
0.097521544 -0.18546607 0.035057355 4278190080
0.097521529 -0.18546608 0.03505725 4278190080
0.096909277 -0.17972197 0.035320912 4278190080
0.096909218 -0.17972197 0.035320897 4278190080
0.099134333 -0.1796532 0.0381811 4278190080
0.10043216 -0.1824839 0.039585844 4278190080
0.099927552 -0.18538083 0.038416661 4278190080
0.10037155 -0.18536536 0.039029814 4278190080
0.095139645 -0.1826558 0.032578629 4278190080
0.10049285 -0.17960455 0.040090553 4278190080
0.095580749 -0.18552057 0.032696519 4278190080
0.10160055 -0.1824449 0.041158702 4278190080
0.10032503 -0.18758836 0.038507596 4278190080
0.097703323 -0.17682035 0.036758102 4278190080
0.097703308 -0.17682035 0.036757991 4278190080
0.09830638 -0.18831787 0.035674755 4278190080
0.098306425 -0.18831787 0.035674769 4278190080
0.094731711 -0.182675 0.031892844 4278190080
0.098569907 -0.17678577 0.0380629 4278190080
0.094851531 -0.17979433 0.032461118 4278190080
0.094792441 -0.17979658 0.032374956 4278190080
0.10113851 -0.17957968 0.041040756 4278190080
0.096273668 -0.176853 0.035202533 4278190080
0.096273609 -0.176853 0.035202518 4278190080
0.097461052 -0.18835047 0.034429573 4278190080
0.097461037 -0.18835048 0.034429476 4278190080
0.094801344 -0.17937467 0.032443874 4278190080
0.10031113 -0.1882516 0.038357314 4278190080
0.10043972 -0.18824713 0.038534731 4278190080
0.10205259 -0.1853099 0.041276619 4278190080
0.094671324 -0.18556212 0.031198863 4278190080
0.096151732 -0.18838815 0.032814734 4278190080
0.10054613 -0.17703021 0.04093552 4278190080
0.094853081 -0.17691591 0.032911371 4278190080
0.10047493 -0.17671011 0.040922314 4278190080
0.10055284 -0.17670755 0.041026298 4278190080
0.094460733 -0.17693064 0.032343354 4278190080
0.1032221 -0.1852777 0.042683728 4278190080
0.093445398 -0.18273599 0.029719736 4278190080
0.10328264 -0.18239436 0.043285422 4278190080
0.10255817 -0.18817607 0.041394673 4278190080
0.093911998 -0.18560131 0.02983769 4278190080
0.097759709 -0.17406079 0.037950128 4278190080
0.097759701 -0.1740606 0.037950121 4278190080
0.098679401 -0.19118117 0.035792474 4278190080
0.098679461 -0.19118117 0.035792489 4278190080
0.097706221 -0.17391193 0.037943952 4278190080
0.097706221 -0.17391191 0.037943952 4278190080
0.097762778 -0.17391033 0.038012885 4278190080
0.097762793 -0.17391033 0.038012981 4278190080
0.097762778 -0.17391032 0.038012892 4278190080
0.097762793 -0.17391032 0.038012989 4278190080
0.10025058 -0.19113463 0.037762579 4278190080
0.095676534 -0.1739849 0.035084255 4278190080
0.095676489 -0.1739849 0.03508424 4278190080
0.095676534 -0.17398489 0.035084251 4278190080
0.095676474 -0.17398489 0.035084236 4278190080
0.094610788 -0.18844545 0.030597221 4278190080
