# .PCD v0.7 - Point Cloud Data file format
VERSION 0.7
FIELDS x y z rgb
SIZE 4 4 4 4
TYPE F F F U
COUNT 1 1 1 1
WIDTH 159
HEIGHT 1
VIEWPOINT 0 0 0 1 0 0 0
POINTS 159
DATA ascii
-0.030597249 -0.17571171 -0.073984116 4278190080
-0.030597249 -0.17571169 -0.073984183 4278190080
-0.021970579 -0.17322163 -0.07379552 4278190080
-0.021970661 -0.1732216 -0.073795527 4278190080
-0.032903723 -0.17850606 -0.073597081 4278190080
-0.019177992 -0.17578778 -0.06980446 4278190080
-0.019177992 -0.17578776 -0.069804527 4278190080
-0.01638731 -0.17860027 -0.067164481 4278190080
-0.019153778 -0.17478646 -0.070867538 4278190080
-0.027727552 -0.17513034 -0.073726773 4278190080
-0.016358588 -0.17735109 -0.067898676 4278190080
-0.024848063 -0.17412752 -0.073763125 4278190080
-0.029967949 -0.17571396 -0.07370653 4278190080
-0.029968105 -0.17571396 -0.073706523 4278190080
-0.030610092 -0.17627358 -0.073684677 4278190080
-0.016323246 -0.17580554 -0.068729088 4278190080
-0.016323246 -0.17580554 -0.068729147 4278190080
-0.019241937 -0.17858547 -0.068312734 4278190080
-0.024887871 -0.17574443 -0.071764365 4278190080
-0.024887871 -0.17574441 -0.071764432 4278190080
-0.030660914 -0.17851646 -0.072664924 4278190080
-0.022035941 -0.17591289 -0.070826128 4278190080
-0.022036023 -0.17591283 -0.070826128 4278190080
-0.022032782 -0.1757708 -0.070899367 4278190080
-0.022032782 -0.17577079 -0.070899442 4278190080
-0.0220327 -0.1757708 -0.070899382 4278190080
-0.0220327 -0.17577079 -0.070899464 4278190080
-0.021870164 -0.17577155 -0.070831642 4278190080
-0.021869985 -0.17577153 -0.070831642 4278190080
-0.018146932 -0.17859027 -0.067850888 4278190080
-0.027742589 -0.17572716 -0.07285209 4278190080
-0.027742589 -0.17572714 -0.072852157 4278190080
-0.032784712 -0.18136391 -0.073479995 4278190080
-0.016512435 -0.18426517 -0.06587974 4278190080
-0.016449977 -0.1814301 -0.066458188 4278190080
-0.024951695 -0.17854518 -0.070347399 4278190080
-0.025955861 -0.1785389 -0.070725061 4278190080
-0.030722458 -0.18137449 -0.072647899 4278190080
-0.027806293 -0.17853092 -0.071508631 4278190080
-0.019304078 -0.18142848 -0.067928277 4278190080
-0.022096567 -0.17857257 -0.069506921 4278190080
-0.022096485 -0.17857257 -0.069506951 4278190080
-0.018889651 -0.18142958 -0.067735955 4278190080
-0.024932547 -0.1777032 -0.07075759 4278190080
-0.032671921 -0.18422161 -0.073362917 4278190080
-0.026423985 -0.18423939 -0.070492655 4278190080
-0.02792977 -0.18423717 -0.071234927 4278190080
-0.022221019 -0.18425435 -0.068635024 4278190080
-0.022220938 -0.18425435 -0.068635054 4278190080
-0.025013873 -0.18138728 -0.069940463 4278190080
-0.026479101 -0.18138294 -0.070609584 4278190080
-0.019886337 -0.18711869 -0.067504868 4278190080
-0.030908506 -0.18991299 -0.071726471 4278190080
-0.0308458 -0.18708411 -0.072456531 4278190080
-0.019428367 -0.18711436 -0.067156516 4278190080
-0.027868057 -0.18138345 -0.071356803 4278190080
-0.019686703 -0.1842677 -0.067621157 4278190080
-0.022158695 -0.18141593 -0.06913133 4278190080
-0.022158613 -0.18141593 -0.069131352 4278190080
-0.03078408 -0.18423051 -0.072581932 4278190080
-0.019366357 -0.18426803 -0.067459524 4278190080
-0.019341361 -0.18313056 -0.067667119 4278190080
-0.025136717 -0.18710943 -0.070055582 4278190080
-0.025825588 -0.18710755 -0.07037437 4278190080
-0.019470163 -0.18842416 -0.061731979 4278190080
-0.02228225 -0.18712023 -0.068809941 4278190080
-0.022282168 -0.18712023 -0.068809979 4278190080
-0.01945631 -0.18811531 -0.064603992 4278190080
-0.01945631 -0.18811531 -0.064604014 4278190080
-0.027991224 -0.18709745 -0.071272708 4278190080
-0.019487172 -0.18887909 -0.058853976 4278190080
-0.025075538 -0.18424225 -0.069849238 4278190080
-0.030973028 -0.19269617 -0.069879621 4278190080
-0.028060494 -0.1901975 -0.070251599 4278190080
-0.030967861 -0.19248898 -0.070162587 4278190080
-0.027706513 -0.18992238 -0.070262283 4278190080
-0.031282388 -0.19270071 -0.070154436 4278190080
-0.028054122 -0.18992148 -0.070424482 4278190080
-0.02231073 -0.18828651 -0.067461029 4278190080
-0.02231065 -0.18828654 -0.067461029 4278190080
-0.027071178 -0.19518006 -0.058608532 4278190080
-0.027071124 -0.19518003 -0.058608532 4278190080
-0.027742445 -0.19528225 -0.061464861 4278190080
-0.027742401 -0.19528222 -0.061464861 4278190080
-0.026084498 -0.19246262 -0.061577499 4278190080
-0.025276832 -0.192398 -0.05956848 4278190080
-0.028206116 -0.1959372 -0.061438814 4278190080
-0.025287876 -0.19281021 -0.058702573 4278190080
-0.028190099 -0.19531395 -0.062477447 4278190080
-0.028190099 -0.19531392 -0.062477559 4278190080
-0.025012113 -0.19236906 -0.058720171 4278190080
-0.025248755 -0.1913327 -0.061622363 4278190080
-0.028240591 -0.19719981 -0.058527805 4278190080
-0.028154291 -0.193872 -0.064382605 4278190080
-0.028154291 -0.19387196 -0.064382635 4278190080
-0.027280428 -0.19255354 -0.064435124 4278190080
-0.027280465 -0.19255354 -0.064435147 4278190080
-0.026155654 -0.19508311 -0.055751592 4278190080
-0.02615561 -0.19508308 -0.055751592 4278190080
-0.029104967 -0.19536954 -0.064322896 4278190080
-0.029105034 -0.19536957 -0.064322896 4278190080
-0.029105004 -0.19536954 -0.064322919 4278190080
-0.029105071 -0.19536957 -0.064322919 4278190080
-0.028705927 -0.19800012 -0.058495831 4278190080
-0.025320154 -0.19397129 -0.055795714 4278190080
-0.030175384 -0.19808514 -0.061354149 4278190080
-0.028260002 -0.19796205 -0.057328034 4278190080
-0.024340445 -0.18964487 -0.061689932 4278190080
-0.024266385 -0.19226848 -0.055863656 4278190080
-0.023706213 -0.18954189 -0.058833692 4278190080
-0.031107608 -0.19812369 -0.062790684 4278190080
-0.028122485 -0.1926083 -0.066220984 4278190080
-0.025215566 -0.19012949 -0.064530931 4278190080
-0.025215566 -0.19012946 -0.064530954 4278190080
-0.027620789 -0.19790684 -0.055638466 4278190080
-0.031087283 -0.19734867 -0.064245179 4278190080
-0.031087283 -0.19734871 -0.064245157 4278190080
-0.024908384 -0.1897493 -0.064546004 4278190080
-0.024908362 -0.1897493 -0.064545989 4278190080
-0.03113557 -0.19925024 -0.061308052 4278190080
-0.025347596 -0.19502454 -0.053891249 4278190080
-0.025347598 -0.19502456 -0.053891167 4278190080
-0.025205662 -0.18978165 -0.065495133 4278190080
-0.022351937 -0.18919691 -0.058845613 4278190080
-0.022351857 -0.18919694 -0.058845613 4278190080
-0.028616313 -0.19264144 -0.067293115 4278190080
-0.028108517 -0.1920867 -0.067314975 4278190080
-0.032177694 -0.19815871 -0.064213783 4278190080
-0.032177739 -0.19815871 -0.064213805 4278190080
-0.022363296 -0.18948871 -0.056821655 4278190080
-0.022363214 -0.18948871 -0.056821745 4278190080
-0.022342764 -0.1891045 -0.0617088 4278190080
-0.022342682 -0.18910451 -0.0617088 4278190080
-0.022379421 -0.19013619 -0.055947818 4278190080
-0.022379341 -0.19013625 -0.055947818 4278190080
-0.028299 -0.19956946 -0.055571556 4278190080
-0.031039059 -0.1954416 -0.067109019 4278190080
-0.031039057 -0.19544157 -0.067109123 4278190080
-0.024979003 -0.19499178 -0.052894004 4278190080
-0.024978973 -0.19499175 -0.052894004 4278190080
-0.031037604 -0.19538285 -0.067184903 4278190080
-0.031095346 -0.19544336 -0.067182526 4278190080
-0.031095423 -0.19544339 -0.067182526 4278190080
-0.030273451 -0.20082168 -0.058382958 4278190080
-0.025370324 -0.1959599 -0.052855037 4278190080
-0.031174254 -0.20085368 -0.059642255 4278190080
-0.023209054 -0.19217458 -0.053006366 4278190080
-0.025876094 -0.18984511 -0.067403048 4278190080
-0.026181214 -0.19782117 -0.052780218 4278190080
-0.032521017 -0.20088997 -0.061243221 4278190080
-0.028709102 -0.2007387 -0.055524394 4278190080
-0.022333084 -0.18898851 -0.06457293 4278190080
-0.022333084 -0.18898849 -0.06457296 4278190080
-0.022333004 -0.18898855 -0.06457293 4278190080
-0.022333002 -0.18898854 -0.064572953 4278190080
-0.025196042 -0.1895583 -0.06741368 4278190080
-0.022422859 -0.19181351 -0.053019863 4278190080
-0.022422779 -0.19181354 -0.053019859 4278190080
-0.028325778 -0.20071386 -0.054713607 4278190080
