# .PCD v0.7 - Point Cloud Data file format
VERSION 0.7
FIELDS x y z rgb
SIZE 4 4 4 4
TYPE F F F U
COUNT 1 1 1 1
WIDTH 139
HEIGHT 1
VIEWPOINT 0 0 0 1 0 0 0
POINTS 139
DATA ascii
0.078199692 -0.12732285 -0.0035013668 4278190080
0.079687305 -0.12214518 -0.0038277074 4278190080
0.079862177 -0.12161557 -0.0038611596 4278190080
0.079862192 -0.12161554 -0.0038611605 4278190080
0.077430181 -0.12750182 -0.0063505508 4278190080
0.075672746 -0.1305348 -0.0090193292 4278190080
0.073968217 -0.13142657 -0.011821331 4278190080
0.079668477 -0.11839734 -0.0069232238 4278190080
0.079671599 -0.11890684 -0.0063317842 4278190080
0.078897491 -0.12446951 -0.0036808308 4278190080
0.076841317 -0.1303575 -0.0062134787 4278190080
0.076857112 -0.13035485 -0.006171491 4278190080
0.079684667 -0.12164184 -0.0042770631 4278190080
0.079684667 -0.12164186 -0.0042770323 4278190080
0.076841645 -0.13042997 -0.0061667757 4278190080
0.079501942 -0.11626735 -0.0099177528 4278190080
0.079445884 -0.11894202 -0.006888689 4278190080
0.076817028 -0.12485078 -0.0097324746 4278190080
0.077472664 -0.12197551 -0.0095567703 4278190080
0.077472694 -0.12197549 -0.0095567703 4278190080
0.076950759 -0.12482841 -0.0093778754 4278190080
0.076820306 -0.12568641 -0.0093241576 4278190080
0.078472406 -0.11912147 -0.0097372103 4278190080
0.076434702 -0.12768131 -0.0091990028 4278190080
0.078775041 -0.11644621 -0.012767078 4278190080
0.07682842 -0.12761904 -0.0082126614 4278190080
0.078617826 -0.12179565 -0.0067088031 4278190080
0.078617856 -0.12179563 -0.0067088041 4278190080
0.073964916 -0.13074593 -0.01234763 4278190080
0.077969283 -0.12464885 -0.0065294998 4278190080
0.07420247 -0.13071543 -0.011866244 4278190080
0.076804571 -0.12210372 -0.011593465 4278190080
0.076804571 -0.12210374 -0.011593394 4278190080
0.077229664 -0.11680417 -0.018465428 4278190080
0.077229679 -0.11680417 -0.018465413 4278190080
0.077563018 -0.11930077 -0.012585945 4278190080
0.076759413 -0.11643293 -0.021349713 4278190080
0.077978067 -0.11662525 -0.015616173 4278190080
0.076786593 -0.11946587 -0.015211726 4278190080
0.075783014 -0.12500831 -0.012225772 4278190080
0.076530457 -0.12215488 -0.012405396 4278190080
0.076530486 -0.12215486 -0.012405396 4278190080
0.072858386 -0.13089575 -0.014713566 4278190080
0.076800272 -0.12146042 -0.012449386 4278190080
0.071093284 -0.13182077 -0.017513311 4278190080
0.071093284 -0.13182084 -0.01751329 4278190080
0.075043447 -0.12786175 -0.012046173 4278190080
0.074622042 -0.12518822 -0.015073688 4278190080
0.075542659 -0.12233437 -0.015253872 4278190080
0.075542688 -0.12233435 -0.015253872 4278190080
0.073948726 -0.12741426 -0.014933279 4278190080
0.073774748 -0.12804191 -0.014893739 4278190080
0.071089238 -0.13112015 -0.018252742 4278190080
0.073951639 -0.12801509 -0.01446932 4278190080
0.07139717 -0.13107635 -0.017560512 4278190080
0.0713972 -0.13107635 -0.017560497 4278190080
0.076772101 -0.11773726 -0.018406015 4278190080
0.076772101 -0.11773721 -0.018406034 4278190080
0.076502703 -0.11698303 -0.021314735 4278190080
0.076764099 -0.11691707 -0.020263596 4278190080
0.076718643 -0.11947991 -0.015434885 4278190080
0.076785505 -0.11932718 -0.015444585 4278190080
0.071073167 -0.12844452 -0.021263514 4278190080
0.071335487 -0.12840196 -0.020589175 4278190080
0.071076885 -0.12903954 -0.020548755 4278190080
0.073931791 -0.12442076 -0.01798193 4278190080
0.073931791 -0.12442082 -0.017981911 4278190080
0.073590539 -0.12536781 -0.017922025 4278190080
0.073590554 -0.12536779 -0.01792201 4278190080
0.074529044 -0.12251391 -0.01810227 4278190080
0.074529059 -0.12251389 -0.01810227 4278190080
0.074529059 -0.12251391 -0.018102255 4278190080
0.074529074 -0.12251389 -0.018102255 4278190080
0.073937275 -0.12530556 -0.016934451 4278190080
0.072586372 -0.12822185 -0.017741567 4278190080
0.072586402 -0.12822185 -0.017741552 4278190080
0.075856708 -0.1196591 -0.018283775 4278190080
0.075856738 -0.1196591 -0.01828376 4278190080
0.068909533 -0.13143653 -0.023255792 4278190080
0.07014218 -0.13125646 -0.020408105 4278190080
0.076748058 -0.11565703 -0.024260582 4278190080
0.075933851 -0.11716153 -0.024164574 4278190080
0.073917262 -0.12238337 -0.020971159 4278190080
0.07377252 -0.12269285 -0.02095148 4278190080
0.07377255 -0.12269283 -0.02095148 4278190080
0.075150773 -0.11983792 -0.021133149 4278190080
0.073919766 -0.1226584 -0.020403408 4278190080
0.073919766 -0.12265842 -0.020403314 4278190080
0.072482318 -0.12554756 -0.020770095 4278190080
0.070179753 -0.12858184 -0.023437111 4278190080
0.071522549 -0.12322959 -0.029499225 4278190080
0.071522519 -0.12322962 -0.029499225 4278190080
0.071028411 -0.12334258 -0.031297307 4278190080
0.071028411 -0.12334257 -0.031297456 4278190080
0.073026642 -0.12037438 -0.029681301 4278190080
0.071036115 -0.12404648 -0.029446959 4278190080
0.071023785 -0.12288205 -0.032381967 4278190080
0.070727907 -0.12340862 -0.032348331 4278190080
0.070727848 -0.12340865 -0.032348331 4278190080
0.07236854 -0.12055309 -0.032530852 4278190080
0.072277397 -0.12305068 -0.026649993 4278190080
0.072277442 -0.12305066 -0.026649993 4278190080
0.073880099 -0.11882237 -0.029780386 4278190080
0.073735915 -0.12019556 -0.026831923 4278190080
0.073892184 -0.11989136 -0.026851311 4278190080
0.069770582 -0.12608542 -0.029316343 4278190080
0.07104817 -0.12510157 -0.026518749 4278190080
0.073894814 -0.12015833 -0.026239155 4278190080
0.073868722 -0.11804152 -0.032691564 4278190080
0.071011752 -0.12183989 -0.035309374 4278190080
0.074588038 -0.11751901 -0.029863568 4278190080
0.06908682 -0.12626418 -0.032165807 4278190080
0.070530795 -0.12590648 -0.02646713 4278190080
0.07171502 -0.12073179 -0.035380412 4278190080
0.074065037 -0.1176974 -0.032713551 4278190080
0.069960222 -0.12358759 -0.035197519 4278190080
0.069960177 -0.12358761 -0.035197519 4278190080
0.073864356 -0.11776704 -0.033826329 4278190080
0.073077939 -0.12287164 -0.02380091 4278190080
0.073077969 -0.12287162 -0.02380091 4278190080
0.071055777 -0.12579484 -0.024691723 4278190080
0.075234562 -0.11734033 -0.027013985 4278190080
0.07390473 -0.12113838 -0.023911174 4278190080
0.074494779 -0.12001661 -0.023982706 4278190080
0.073545098 -0.11787577 -0.035563543 4278190080
0.06836345 -0.12644304 -0.03501514 4278190080
0.068180159 -0.12824377 -0.032039993 4278190080
0.071438834 -0.12572718 -0.023618393 4278190080
0.073857695 -0.11739706 -0.035594262 4278190080
0.068514369 -0.12894008 -0.029135069 4278190080
0.068167314 -0.12687896 -0.03498745 4278190080
0.068187527 -0.12901573 -0.030339343 4278190080
0.071061209 -0.12654428 -0.023566453 4278190080
0.069349118 -0.12876095 -0.026286094 4278190080
0.068163507 -0.12649718 -0.035878204 4278190080
0.071000353 -0.12104359 -0.038221516 4278190080
0.071000353 -0.12104362 -0.03822159 4278190080
0.071095027 -0.1209104 -0.038230084 4278190080
0.071095042 -0.12091041 -0.038230158 4278190080
