# .PCD v0.7 - Point Cloud Data file format
VERSION 0.7
FIELDS x y z rgba label
SIZE 4 4 4 4 4
TYPE F F F U U
COUNT 1 1 1 1 1
WIDTH 390
HEIGHT 1
VIEWPOINT 0 0 0 1 0 0 0
POINTS 390
DATA ascii
0.18724066 0.10009334 -0.0027324641 4278190080 20813
0.18641658 0.103136 -5.7015288e-05 4278190080 20629
0.18472414 0.10122456 -0.0031351978 4278190080 20549
0.18530129 0.10318562 -0.00077411055 4278190080 20660
0.18442063 0.1019926 -0.0023902899 4278190080 20641
0.18933582 0.10296626 -0.0017623579 4278190080 20687
0.18947576 0.10327682 -0.0011682888 4278190080 20762
0.18872915 0.10380024 -0.0013613788 4278190080 20754
0.18982036 0.10304509 -0.0014357639 4278190080 20696
0.18927529 0.1022538 -0.0036181484 4278190080 20715
0.18404393 0.10080303 -0.0039888448 4278190080 20608
0.18885618 0.10399089 -0.0010775377 4278190080 20678
0.18448018 0.10022353 -0.0044670831 4278190080 20635
0.18998216 0.10336949 -0.00084351545 4278190080 20743
0.1872212 0.10439484 0.00089259906 4278190080 20564
0.19103654 0.10107605 -0.0023466551 4278190080 20883
0.18862286 0.10261334 -0.0044396906 4278190080 20709
0.19088233 0.10231979 -0.0017333083 4278190080 20965
0.19124587 0.10131657 -0.0020782938 4278190080 20891
0.19107494 0.10234217 -0.0010255805 4278190080 20914
0.18941313 0.10322941 0.0017482182 4278190080 20839
0.18930157 0.10427638 -0.00011867961 4278190080 20787
0.1914337 0.10166275 -0.0014892749 4278190080 20927
0.18379264 0.10064369 -0.004937578 4278190080 20625
0.18422177 0.099746391 -0.0053033535 4278190080 20661
0.18381053 0.10023364 -0.0051279715 4278190080 20636
0.1837952 0.10053856 -0.0052369223 4278190080 20645
0.1912498 0.10312835 -0.00023889722 4278190080 20918
0.18617342 0.1037439 -0.0048967483 4278190080 20300
0.18657777 0.10410027 -0.0046877419 4278190080 20276
0.18807845 0.10488456 -0.00348238 4278190080 20433
0.18493052 0.10228261 -0.005594648 4278190080 20449
0.18724497 0.10527591 0.0012733182 4278190080 20558
0.18893248 0.099420249 -0.0059490656 4278190080 20855
0.18640129 0.10431157 -0.0047599007 4278190080 20248
0.18978998 0.10401687 0.0021823118 4278190080 20854
0.19154403 0.10321223 0.0004528611 4278190080 20901
0.19218443 0.099678017 -0.0032385988 4278190080 21035
0.18458216 0.10265738 -0.0058318735 4278190080 20243
0.18466733 0.10228968 -0.0060406257 4278190080 20231
0.18436845 0.10130237 -0.0062391376 4278190080 20355
0.18876381 0.10564094 -0.0027075547 4278190080 20447
0.19203654 0.10305896 0.0001596505 4278190080 20936
0.18816599 0.10542616 0.001945674 4278190080 20547
0.19257383 0.1001428 -0.0026932785 4278190080 21112
0.19010741 0.10400017 0.0025544688 4278190080 20812
0.18701798 0.10523075 -0.0044072336 4278190080 20273
0.19252224 0.099992625 -0.0029988505 4278190080 21030
0.18437588 0.10242578 -0.0060802833 4278190080 20333
0.18427631 0.10194512 -0.0062425444 4278190080 20330
0.18936075 0.10129128 -0.006441846 4278190080 20785
0.18595682 0.1060456 -0.0030307164 4278190080 20038
0.18608734 0.10622978 -0.0027541905 4278190080 20001
0.18874101 0.10595266 -0.0028194103 4278190080 20458
0.19290702 0.1004557 -0.0024499698 4278190080 21104
0.18386962 0.10200927 -0.0062522134 4278190080 20282
0.18391493 0.10487834 -0.0043028248 4278190080 19996
0.18457329 0.10540049 -0.0041529192 4278190080 20096
0.185196 0.10610042 -0.0033863033 4278190080 20122
0.19324988 0.1008959 -0.0018882885 4278190080 21048
0.18835874 0.10144595 -0.007161696 4278190080 20674
0.1895677 0.10530412 -0.0042889728 4278190080 20498
0.18941157 0.1049844 -0.0048760599 4278190080 20484
0.18375848 0.10103078 -0.0067934063 4278190080 20369
0.19100355 0.10512017 0.0010382364 4278190080 20778
0.18902326 0.098365501 -0.0069690896 4278190080 20938
0.19257455 0.10340553 0.0011271457 4278190080 20895
0.18348461 0.10044526 -0.0069062868 4278190080 20384
0.18319368 0.10138611 -0.006675092 4278190080 20306
0.18286608 0.10371479 -0.0055474024 4278190080 20055
0.1834646 0.098652683 -0.0069014514 4278190080 20546
0.19216454 0.10439027 0.001476216 4278190080 20860
0.18938996 0.10129759 -0.0075019896 4278190080 20775
0.19396964 0.100316 -0.0016745657 4278190080 21063
0.19405718 0.100942 -0.0011752761 4278190080 21110
0.19404517 0.099905238 -0.0018880042 4278190080 21113
0.18268017 0.10216375 -0.0066636601 4278190080 20090
0.18827762 0.10665552 -0.0043904129 4278190080 20141
0.19284798 0.10380726 0.0017115889 4278190080 20968
0.19424389 0.099685617 -0.0018073743 4278190080 21071
0.19105086 0.10604182 0.0014254769 4278190080 20746
0.19431756 0.10030401 -0.0013043464 4278190080 21090
0.1939276 0.10205425 -0.0027745585 4278190080 20990
0.18883483 0.097589016 -0.0077263704 4278190080 20955
0.19444525 0.099921659 -0.0015292019 4278190080 21081
0.18250531 0.10106841 -0.0071989568 4278190080 20264
0.18254523 0.10229528 -0.0070334128 4278190080 20004
0.1899457 0.10074496 -0.0080335578 4278190080 20697
0.19452094 0.10145362 -0.00062930345 4278190080 21038
0.18545942 0.1034238 -0.0079837069 4278190080 20208
0.19458306 0.1016118 -0.00032005261 4278190080 21128
0.18425956 0.10740841 -0.0032925115 4278190080 19777
0.19147275 0.097835787 -0.0068500242 4278190080 21051
0.18688172 0.097418472 -0.0083247432 4278190080 20811
0.19030976 0.10738143 -0.0019074715 4278190080 20376
0.19437158 0.10267828 -0.0019079563 4278190080 21015
0.18870845 0.10076961 -0.0086842757 4278190080 20719
0.19202366 0.10597843 0.0014811573 4278190080 20733
0.18321018 0.10666934 -0.0043688011 4278190080 19738
0.1887591 0.10112517 -0.0088157086 4278190080 20752
0.19460545 0.10265987 0.00039457064 4278190080 21044
0.18225965 0.10517815 -0.0058414987 4278190080 19759
0.19464439 0.10247082 0.00083287043 4278190080 21069
0.18218976 0.10504211 -0.0061228424 4278190080 19779
0.184761 0.10815932 -0.0031993445 4278190080 19786
0.19030957 0.097585455 -0.0082121594 4278190080 20992
0.18578175 0.097191572 -0.0088624777 4278190080 20851
0.19151221 0.10752486 -0.0018856223 4278190080 20463
0.18280289 0.09772902 -0.0082080131 4278190080 20624
0.18180798 0.099922322 -0.0080787232 4278190080 20324
0.18489064 0.10492814 -0.0081043569 4278190080 19949
0.18256094 0.099563539 -0.0085462397 4278190080 20383
0.1948283 0.10315828 0.0013187977 4278190080 21092
0.18604346 0.1090584 -0.0021419076 4278190080 19783
0.1913802 0.1079477 -0.0013793586 4278190080 20363
0.19002105 0.10033658 -0.0093050925 4278190080 20772
0.18142901 0.10151769 -0.0080301864 4278190080 20087
0.18170895 0.099760167 -0.0083448589 4278190080 20327
0.18436587 0.10212903 -0.0094973641 4278190080 20145
0.18475844 0.10819276 -0.0050954758 4278190080 19692
0.18596117 0.10933239 -0.0022281758 4278190080 19781
0.18158413 0.10079835 -0.0084455572 4278190080 19962
0.19296204 0.10667374 0.0016281576 4278190080 20753
0.18967924 0.1078176 0.0036242076 4278190080 20630
0.18738078 0.097029097 -0.0095274365 4278190080 20916
0.19073178 0.096705534 -0.0085351728 4278190080 21085
0.18201984 0.097778492 -0.0085107358 4278190080 20599
0.19578156 0.10212541 0.00098449551 4278190080 21050
0.18142419 0.10100988 -0.0085094906 4278190080 20079
0.19202013 0.1080699 -0.0013554723 4278190080 20517
0.1825565 0.097371958 -0.0087312888 4278190080 20580
0.1823166 0.099206053 -0.0090670297 4278190080 20461
0.18795584 0.10971183 -0.00097161788 4278190080 19789
0.18389821 0.10760117 -0.006213713 4278190080 19641
0.19040433 0.10907636 -0.0017312656 4278190080 20204
0.1850217 0.10887188 -0.0046401909 4278190080 19651
0.18815604 0.1076988 -0.0067561907 4278190080 19946
0.18284048 0.1027388 -0.0092687327 4278190080 19859
0.19396777 0.10541425 0.0029851238 4278190080 20875
0.18406415 0.10173849 -0.010012569 4278190080 20183
0.19599579 0.10203543 0.0013932962 4278190080 21040
0.18363833 0.10725625 -0.0067590508 4278190080 19722
0.18406884 0.10821456 -0.005743077 4278190080 19701
0.18403825 0.1051591 -0.0088067204 4278190080 19799
0.18245694 0.10531305 -0.0080799405 4278190080 19686
0.18335688 0.10739383 -0.0067880326 4278190080 19668
0.18295717 0.10654607 -0.0074987439 4278190080 19707
0.18716462 0.096359916 -0.0099570202 4278190080 20905
0.19025406 0.10829696 0.0038410539 4278190080 20640
0.19013594 0.10006392 -0.010275762 4278190080 20782
0.18785141 0.10816555 -0.006899518 4278190080 19873
0.1839485 0.10846102 -0.0058128163 4278190080 19676
0.18794635 0.09616515 -0.0099418843 4278190080 20956
0.18916826 0.096239306 -0.0097600836 4278190080 20972
0.18215512 0.097233877 -0.0093202749 4278190080 20653
0.19044951 0.10820243 0.0042395694 4278190080 20628
0.18225171 0.098543882 -0.0098174568 4278190080 20387
0.18064228 0.10063893 -0.0089886738 4278190080 19953
0.18101454 0.098932236 -0.0093202684 4278190080 20299
0.19047923 0.095767491 -0.0095929867 4278190080 21103
0.18085116 0.10026696 -0.0095243594 4278190080 19952
0.19404449 0.10723723 0.0021968917 4278190080 20706
0.18194036 0.10544719 -0.0087407688 4278190080 19705
0.18827848 0.11078425 -0.00061703782 4278190080 19754
0.18958533 0.099732533 -0.011177767 4278190080 20695
0.18694629 0.11078284 -0.0028903608 4278190080 19718
0.1812302 0.098553225 -0.0098547693 4278190080 20280
0.19667034 0.10292038 0.0025734475 4278190080 21029
0.18681619 0.096137419 -0.010887224 4278190080 20876
0.18040617 0.10060775 -0.0096128201 4278190080 20051
0.18803662 0.1110509 -0.00036343921 4278190080 19741
0.18669525 0.11094729 -0.0029374242 4278190080 19645
0.18602145 0.096230775 -0.01093071 4278190080 20801
0.18635237 0.10037596 -0.011763571 4278190080 20478
0.21412635 0.11853548 0.010294323 4278190080 18423
0.21460965 0.11894699 0.01058981 4278190080 18416
0.21091247 0.1126612 0.010089162 4278190080 18958
0.21521164 0.11146218 0.012424399 4278190080 18301
0.21617912 0.11113138 0.012309417 4278190080 18298
0.21298701 0.11228133 0.012532977 4278190080 18328
0.21467692 0.11253257 0.011401831 4278190080 18556
0.21582887 0.11081366 0.012001322 4278190080 18289
0.21875975 0.1115663 0.012758797 4278190080 18199
0.21476267 0.11137705 0.011453921 4278190080 18514
0.21943231 0.11125544 0.0139614 4278190080 18089
0.21854885 0.1113093 0.01244356 4278190080 18179
0.21918367 0.11096893 0.01365658 4278190080 18033
0.21932547 0.11142898 0.013246819 4278190080 18138
0.21489434 0.11060406 0.011370097 4278190080 18469
0.21452224 0.11076687 0.011266441 4278190080 18550
0.21281976 0.11364343 0.01123093 4278190080 18450
0.22053647 0.11146496 0.014894685 4278190080 18073
0.21415082 0.11044659 0.010958179 4278190080 18509
0.21514225 0.10976453 0.010938129 4278190080 18496
0.21261226 0.11355157 0.010464125 4278190080 18704
0.22111133 0.11091208 0.014899991 4278190080 18049
0.21222672 0.11130772 0.010011735 4278190080 18777
0.21295863 0.10960466 0.010293044 4278190080 18651
0.21778141 0.10871384 0.010729378 4278190080 18271
0.21290997 0.11021814 0.0097198784 4278190080 18672
0.21098673 0.11391776 0.010074408 4278190080 18858
0.21213643 0.1107793 0.0097976178 4278190080 18773
0.20560174 0.10621564 0.0076805032 4278190080 19318
0.2075894 0.10457675 0.0068628523 4278190080 19130
0.20699286 0.1040345 0.0065046656 4278190080 19146
0.20746587 0.10614335 0.0074259238 4278190080 19144
0.20696622 0.1035574 0.0062652724 4278190080 19148
0.20751154 0.10663404 0.0076650917 4278190080 19142
0.20826258 0.10479338 0.0067122146 4278190080 19145
0.2086934 0.10394627 0.006721498 4278190080 19132
0.20250686 0.10462933 0.0071363412 4278190080 20859
0.21024263 0.10623594 0.0075619896 4278190080 18960
0.20485495 0.1026144 0.0049295789 4278190080 19479
0.21054108 0.1054448 0.0070812223 4278190080 18978
0.2019047 0.10662749 0.0076390477 4278190080 21173
0.21028554 0.10720327 0.0080067953 4278190080 18955
0.20580462 0.1023339 0.0046062726 4278190080 19346
0.20089823 0.10529884 0.0078533664 4278190080 20808
0.20264798 0.10217444 0.005718092 4278190080 20942
0.20175652 0.10701886 0.0078717433 4278190080 21205
0.20198268 0.10434603 0.00570744 4278190080 21089
0.21141882 0.10611448 0.0076762582 4278190080 18922
0.20169458 0.10586276 0.0059740474 4278190080 21177
0.20205697 0.10905766 0.010634638 4278190080 21185
0.20203494 0.10912538 0.0097642196 4278190080 21120
0.21055977 0.10311246 0.0050625373 4278190080 18797
0.2105948 0.10878821 0.0086518005 4278190080 18937
0.22643627 0.11810274 0.027497834 4278190080 17674
0.22679894 0.11409787 0.023061624 4278190080 17710
0.22710764 0.11448975 0.024183054 4278190080 17705
0.22601449 0.11348915 0.020492809 4278190080 17816
0.22380163 0.11862593 0.023913139 4278190080 17898
0.22386116 0.11933991 0.024354404 4278190080 17880
0.22353436 0.12114355 0.024053281 4278190080 17849
0.2244228 0.1186602 0.024922507 4278190080 17872
0.22452873 0.11820983 0.024797382 4278190080 17852
0.22297536 0.11999449 0.026282944 4278190080 17643
0.22241344 0.12072936 0.026415525 4278190080 17607
0.22413605 0.12117774 0.025061423 4278190080 17883
0.22536789 0.11717352 0.024943314 4278190080 17723
0.22543913 0.11577664 0.023306496 4278190080 17720
0.22581108 0.11616183 0.02220415 4278190080 17804
0.22306794 0.12347669 0.022582855 4278190080 17867
0.22572498 0.11634567 0.024723195 4278190080 17703
0.22659841 0.11782408 0.023526125 4278190080 17739
0.22530316 0.11838615 0.02627412 4278190080 17712
0.22367044 0.11983528 0.027387422 4278190080 17618
0.225474 0.11797056 0.026165405 4278190080 17715
0.22362769 0.11469876 0.019052291 4278190080 17909
0.22592033 0.11520295 0.021967024 4278190080 17812
0.22690247 0.11823308 0.023855431 4278190080 17724
0.22578396 0.11730669 0.026250985 4278190080 17711
0.22598825 0.11466414 0.022475233 4278190080 17721
0.22562675 0.11450139 0.021037381 4278190080 17799
0.22576116 0.1179849 0.026671568 4278190080 17719
0.22616501 0.1161144 0.025422521 4278190080 17702
0.22593515 0.11445179 0.022168467 4278190080 17701
0.22287345 0.1243931 0.024419863 4278190080 17615
0.22653367 0.11466506 0.023479359 4278190080 17717
0.22648627 0.1144549 0.023171404 4278190080 17722
0.22276008 0.12488729 0.020864503 4278190080 17869
0.22573224 0.11386044 0.02061047 4278190080 17810
0.22308816 0.12510696 0.021671243 4278190080 17863
0.2252453 0.11357395 0.019803112 4278190080 17814
0.2228491 0.11366673 0.017770225 4278190080 17965
0.22379267 0.12235646 0.027731989 4278190080 17471
0.22391753 0.12148567 0.028282134 4278190080 17472
0.22307833 0.12494821 0.020222457 4278190080 17927
0.22655925 0.1167387 0.026853679 4278190080 17704
0.2232094 0.12535469 0.02198372 4278190080 17877
0.22168395 0.11963626 0.021986609 4278190080 17970
0.22197756 0.11896456 0.022029083 4278190080 17946
0.22192734 0.12173852 0.02093393 4278190080 17934
0.22118275 0.12267195 0.018374864 4278190080 17978
0.2219386 0.1228895 0.019913215 4278190080 17956
0.22279051 0.11738303 0.021486631 4278190080 17935
0.22081243 0.1231117 0.016650286 4278190080 18083
0.22238871 0.11580985 0.019767227 4278190080 17945
0.22144771 0.12365371 0.01833928 4278190080 17990
0.22262004 0.12262246 0.021079434 4278190080 17967
0.22292916 0.11915493 0.023031427 4278190080 17964
0.22013195 0.1233974 0.015515398 4278190080 18031
0.22292019 0.12015726 0.023309831 4278190080 17966
0.22265708 0.1228916 0.02195568 4278190080 17890
0.22339664 0.11665943 0.021601861 4278190080 17859
0.2235208 0.11708127 0.02222467 4278190080 17857
0.22013615 0.12373417 0.015343811 4278190080 18036
0.22287694 0.12254602 0.022633109 4278190080 17871
0.21874517 0.12283625 0.014113092 4278190080 18146
0.22335838 0.11542154 0.020232543 4278190080 17856
0.22280726 0.12315322 0.022267796 4278190080 17897
0.22371566 0.11631892 0.021478388 4278190080 17851
0.22378868 0.11653551 0.021790445 4278190080 17878
0.22077559 0.1244336 0.015963262 4278190080 18050
0.22388026 0.11694144 0.022414302 4278190080 17870
0.22266246 0.12418569 0.021227894 4278190080 17895
0.22178967 0.12484509 0.017809888 4278190080 17998
0.21629845 0.11610851 0.017307617 4278190080 18324
0.21573898 0.11693824 0.016099591 4278190080 18304
0.21631654 0.11810828 0.016125774 4278190080 18305
0.21746929 0.11815067 0.017212039 4278190080 18151
0.21773642 0.11777395 0.017844472 4278190080 18152
0.21784078 0.11749214 0.018001188 4278190080 18117
0.21523419 0.11673644 0.01531787 4278190080 18337
0.21602556 0.1151979 0.01646008 4278190080 18310
0.2177382 0.11845244 0.017526418 4278190080 18153
0.21660775 0.11898538 0.015829638 4278190080 18293
0.21828149 0.11705251 0.018310757 4278190080 18131
0.21617952 0.11479382 0.016262181 4278190080 18336
0.21845771 0.11600392 0.017658696 4278190080 18123
0.21843761 0.11744595 0.018952962 4278190080 18137
0.21465585 0.11579172 0.01482588 4278190080 18307
0.21849069 0.11917627 0.018154433 4278190080 18147
0.21545075 0.11848805 0.01426929 4278190080 18329
0.21442983 0.11518172 0.014648203 4278190080 18296
0.215755 0.11415625 0.01528385 4278190080 18322
0.21910885 0.11712652 0.019263413 4278190080 18140
0.21875498 0.11947737 0.018472861 4278190080 18128
0.21878411 0.11487644 0.016677873 4278190080 18126
0.21948831 0.11617904 0.018605612 4278190080 18149
0.21922803 0.11734588 0.019586075 4278190080 18129
0.21936208 0.1169207 0.019420534 4278190080 18121
0.21849248 0.12001459 0.016028259 4278190080 18181
0.21925326 0.11493595 0.017148808 4278190080 18130
0.21597427 0.11378755 0.015082044 4278190080 18303
0.21527372 0.11895773 0.013664122 4278190080 18331
0.21498601 0.1139541 0.014850255 4278190080 18326
0.21818443 0.12058626 0.016233768 4278190080 18135
0.21837027 0.11424981 0.015432992 4278190080 18190
0.21818119 0.1140006 0.015113893 4278190080 18175
0.21377538 0.11524732 0.01374764 4278190080 18300
0.21372329 0.11591483 0.013471105 4278190080 18347
0.21493898 0.11898194 0.013211246 4278190080 18315
0.21378009 0.11629558 0.013327593 4278190080 18341
0.21874279 0.1208691 0.017024301 4278190080 18139
0.21925689 0.11953704 0.019758439 4278190080 18122
0.21929048 0.12008505 0.019113049 4278190080 18150
0.21845414 0.12107994 0.016064366 4278190080 18148
0.21830221 0.12118065 0.015585694 4278190080 18134
0.21956091 0.11883247 0.020561615 4278190080 18119
0.21337739 0.11558675 0.013164983 4278190080 18308
0.21393511 0.1138099 0.013969112 4278190080 18294
0.21968168 0.11855571 0.020721467 4278190080 18132
0.21549268 0.11720775 0.012157981 4278190080 18465
0.21658635 0.11300256 0.01433404 4278190080 18335
0.21805286 0.1211991 0.014611073 4278190080 18176
0.22083867 0.1156576 0.018615866 4278190080 17936
0.21558374 0.12055539 0.013077556 4278190080 18302
0.21887282 0.11331093 0.01505445 4278190080 18127
0.21939148 0.1133908 0.01551902 4278190080 18157
0.21345966 0.11376307 0.013530225 4278190080 18288
0.21840292 0.12176675 0.014936584 4278190080 18118
0.2152506 0.12057843 0.012624136 4278190080 18325
0.21368417 0.11855271 0.012023021 4278190080 18332
0.22158802 0.11649636 0.018624453 4278190080 18058
0.21524909 0.11850351 0.011625719 4278190080 18426
0.21311501 0.1173915 0.012016444 4278190080 18292
0.21509972 0.11264195 0.013472626 4278190080 18291
0.22146714 0.11476165 0.017862417 4278190080 18052
0.21476692 0.11809492 0.011325348 4278190080 18417
0.21582779 0.1214106 0.012777007 4278190080 18334
0.21494788 0.12061862 0.012170468 4278190080 18343
0.22167173 0.11542922 0.018962743 4278190080 17969
0.21402197 0.11945147 0.011716604 4278190080 18306
0.21893251 0.11253522 0.014241313 4278190080 18133
0.21917073 0.1225166 0.015555583 4278190080 18143
0.22178984 0.11447255 0.017882111 4278190080 17942
0.22082087 0.11310185 0.016133418 4278190080 18040
0.21346855 0.11899297 0.011428852 4278190080 18295
0.21376644 0.1161951 0.011143123 4278190080 18459
0.21284367 0.11315948 0.012916395 4278190080 18345
0.22026622 0.12231031 0.017093379 4278190080 18004
0.22177137 0.11733974 0.020807924 4278190080 17954
0.21542639 0.11329882 0.01171334 4278190080 18425
0.21326143 0.11256271 0.012840828 4278190080 18348
0.22165839 0.1179523 0.021258511 4278190080 17959
0.15890692 0.086666398 0.052506596 4278190080 14231
0.15910664 0.086594649 0.052750945 4278190080 14306
0.15078093 0.083809413 0.046462592 4278190080 14889
0.15219386 0.086045504 0.047160342 4278190080 14754
0.15059564 0.083772957 0.045999527 4278190080 14910
0.15008432 0.083878949 0.046176214 4278190080 14881
0.15163659 0.086510196 0.046749569 4278190080 14761
0.15738581 0.085111499 0.052490406 4278190080 14299
0.15735902 0.085031278 0.052651115 4278190080 14226
0.156653 0.087460697 0.051074132 4278190080 14254
0.15755646 0.086887807 0.051782943 4278190080 14326
0.15753403 0.086928681 0.051893841 4278190080 14228
0.15771957 0.086846024 0.052408401 4278190080 14304
0.15782598 0.086790502 0.052471898 4278190080 14268
