# .PCD v0.7 - Point Cloud Data file format
VERSION 0.7
FIELDS x y z rgba label
SIZE 4 4 4 4 4
TYPE F F F U U
COUNT 1 1 1 1 1
WIDTH 234
HEIGHT 1
VIEWPOINT 0 0 0 1 0 0 0
POINTS 234
DATA ascii
0.25432178 -0.038809709 0.17533989 4278190080 1686
0.25195873 -0.041400321 0.17383461 4278190080 1757
0.25262976 -0.041369833 0.17379369 4278190080 1762
0.25208107 -0.042271711 0.1745241 4278190080 1693
0.25466937 -0.041356139 0.17147043 4278190080 1968
0.25377536 -0.04016272 0.17401041 4278190080 1743
0.25361899 -0.043854628 0.17303106 4278190080 1874
0.25445694 -0.040815074 0.17402188 4278190080 1800
0.2517975 -0.0428661 0.17579216 4278190080 1647
0.25494835 -0.040245544 0.1734433 4278190080 1828
0.25134903 -0.043657254 0.17579058 4278190080 1646
0.25473377 -0.043015692 0.17297809 4278190080 1858
0.25264901 -0.042216823 0.17601156 4278190080 1648
0.24527279 -0.049710378 0.17254604 4278190080 1730
0.24420708 -0.048697371 0.1732484 4278190080 1683
0.24896939 -0.047447782 0.17046601 4278190080 1948
0.2510727 -0.044828303 0.17074579 4278190080 1931
0.25328869 -0.047396634 0.16712405 4278190080 2869
0.24950854 -0.047506519 0.17146635 4278190080 1919
0.25045007 -0.046629541 0.17166822 4278190080 1903
0.25282383 -0.048333596 0.16906615 4278190080 2630
0.24786885 -0.047106571 0.17200315 4278190080 1846
0.25174433 -0.048675943 0.17025729 4278190080 2370
0.24961218 -0.04776036 0.17188564 4278190080 1877
0.24895668 -0.048535574 0.1714737 4278190080 1921
0.25341597 -0.047467414 0.16946034 4278190080 2657
0.24957095 -0.047014195 0.17234227 4278190080 1884
0.24900065 -0.048450094 0.17178527 4278190080 1879
0.24759927 -0.047257971 0.17224471 4278190080 1829
0.25242108 -0.043434143 0.17099486 4278190080 1950
0.25039333 -0.044355925 0.17244163 4278190080 1831
0.25332576 -0.048504941 0.16880673 4278190080 2735
0.25005826 -0.044176154 0.17257792 4278190080 1813
0.24852844 -0.045200333 0.17289758 4278190080 1765
0.24721789 -0.04771854 0.17218873 4278190080 1834
0.24836646 -0.047101177 0.17284948 4278190080 1808
0.24838756 -0.049548365 0.17146945 4278190080 1930
0.24814555 -0.045312114 0.1730784 4278190080 1758
0.25143716 -0.045911428 0.17256923 4278190080 1881
0.25200799 -0.045544662 0.1723976 4278190080 1866
0.24831578 -0.049414951 0.17171983 4278190080 1885
0.24803869 -0.050022393 0.17143103 4278190080 1913
0.25183436 -0.044736102 0.17279135 4278190080 1861
0.2547726 -0.04662548 0.16947927 4278190080 2610
0.24680816 -0.047247887 0.17295146 4278190080 1766
0.25020447 -0.043656338 0.17326902 4278190080 1756
0.25271499 -0.044854265 0.17253974 4278190080 1850
0.24611966 -0.049456693 0.17180902 4278190080 1823
0.24615119 -0.047894493 0.17281446 4278190080 1734
0.2537967 -0.047706172 0.17129764 4278190080 2357
0.24670456 -0.045471288 0.17356977 4278190080 1682
0.25326055 -0.047690306 0.17190367 4278190080 1989
0.24787503 -0.043771654 0.17367373 4278190080 1685
0.25512233 -0.047942042 0.1657196 4278190080 3269
0.25129709 -0.043208297 0.17319947 4278190080 1785
0.25198615 -0.042734835 0.17274654 4278190080 1835
0.24728189 -0.05011921 0.17208426 4278190080 1862
0.24984521 -0.044604138 0.17410244 4278190080 1715
0.24762765 -0.046798401 0.17397864 4278190080 1699
0.24558841 -0.046852577 0.17341112 4278190080 1673
0.25581068 -0.045943689 0.16975647 4278190080 2560
0.24662611 -0.049785137 0.17273343 4278190080 1793
0.25634488 -0.044941247 0.1678357 4278190080 2881
0.25641498 -0.045019925 0.16751976 4278190080 2868
0.2496592 -0.049561907 0.16903788 4278190080 2497
0.24943796 -0.050790675 0.16980077 4278190080 2382
0.24685153 -0.049914993 0.17046344 4278190080 1952
0.2478344 -0.049153317 0.17038639 4278190080 1970
0.25135738 -0.054177914 0.16725877 4278190080 2948
0.25080851 -0.053591762 0.16848087 4278190080 2774
0.24888526 -0.052182809 0.17032045 4278190080 2340
0.25329697 -0.051593903 0.16582523 4278190080 3267
0.25123969 -0.055783112 0.16596206 4278190080 3283
0.25109252 -0.056078281 0.16597076 4278190080 3290
0.25159776 -0.049186502 0.16910216 4278190080 2563
0.25009891 -0.056424383 0.16689192 4278190080 3029
0.2528511 -0.052322429 0.16744511 4278190080 2945
0.25298768 -0.054341573 0.16380666 4278190080 3657
0.24660423 -0.051151 0.17139149 4278190080 1860
0.25297293 -0.048029814 0.16678616 4278190080 2878
0.24841183 -0.047791034 0.17063023 4278190080 1933
0.2478912 -0.053092074 0.16847265 4278190080 2556
0.24754356 -0.053077638 0.16866334 4278190080 2504
0.24857737 -0.052761767 0.16834289 4278190080 2635
0.2484017 -0.052637629 0.16858031 4278190080 2652
0.24811044 -0.051274411 0.16879609 4278190080 2547
0.24889988 -0.052224994 0.1683476 4278190080 2583
0.24680975 -0.054365974 0.16901013 4278190080 2503
0.25113425 -0.050447449 0.16659252 4278190080 2904
0.24907199 -0.054912891 0.16805971 4278190080 2788
0.24534906 -0.052670725 0.17015897 4278190080 1954
0.24997859 -0.050980125 0.16850124 4278190080 2651
0.24474654 -0.053612072 0.17012548 4278190080 1932
0.24967115 -0.05448639 0.16821231 4278190080 2817
0.24578682 -0.051596422 0.17040645 4278190080 1963
0.24455638 -0.053826045 0.17009461 4278190080 1944
0.24593619 -0.051356796 0.17041352 4278190080 1941
0.2500557 -0.054358296 0.16799538 4278190080 2822
0.24428329 -0.053645749 0.17024638 4278190080 1953
0.25157663 -0.049928777 0.16665456 4278190080 2876
0.25034431 -0.050787434 0.16861081 4278190080 2629
0.24656914 -0.050408591 0.17045999 4278190080 1958
0.25150216 -0.049848009 0.16695714 4278190080 2884
0.2458974 -0.054324023 0.16703668 4278190080 2713
0.24597597 -0.057250001 0.16730431 4278190080 2816
0.24718067 -0.056117412 0.16754283 4278190080 2767
0.24672928 -0.057307899 0.16730034 4278190080 2851
0.24628064 -0.05777337 0.16722338 4278190080 2775
0.2475601 -0.052704386 0.16735382 4278190080 2701
0.24914502 -0.057454739 0.16638078 4278190080 3127
0.2472218 -0.054189272 0.1681155 4278190080 2658
0.24556166 -0.057095375 0.16812716 4278190080 2589
0.24620847 -0.055685237 0.16839269 4278190080 2575
0.24740043 -0.053933512 0.16812852 4278190080 2573
0.24800014 -0.052217834 0.16742332 4278190080 2675
0.25018829 -0.057121731 0.1658379 4278190080 3262
0.246169 -0.055998966 0.16845429 4278190080 2578
0.24546005 -0.057379033 0.16815437 4278190080 2654
0.24948665 -0.056858148 0.16673587 4278190080 3083
0.24970725 -0.057004064 0.16651003 4278190080 3081
0.24815834 -0.051947989 0.16742463 4278190080 2754
0.25028634 -0.057592221 0.16564731 4278190080 3394
0.24725039 -0.053818733 0.16837673 4278190080 2621
0.24592319 -0.056000978 0.16869901 4278190080 2536
0.24742658 -0.060229391 0.16506445 4278190080 3363
0.24600689 -0.060452167 0.16612345 4278190080 3113
0.24830683 -0.061563414 0.16407591 4278190080 3843
0.24773879 -0.062400047 0.16404404 4278190080 3840
0.24669893 -0.060141649 0.16599476 4278190080 3087
0.24820691 -0.061882455 0.16411282 4278190080 3834
0.24947321 -0.061693128 0.16241957 4278190080 4039
0.24384481 -0.059568822 0.16696063 4278190080 2791
0.24313834 -0.060919475 0.166656 4278190080 2823
0.24494502 -0.059150923 0.16699222 4278190080 2829
0.24513417 -0.060356755 0.16679643 4278190080 2898
0.24745035 -0.058722265 0.16631936 4278190080 3167
0.24449812 -0.056011315 0.16685063 4278190080 2756
0.24170613 -0.060562845 0.16677476 4278190080 2686
0.24664977 -0.060054872 0.16667861 4278190080 2965
0.245894 -0.057929479 0.1670963 4278190080 2780
0.24715665 -0.056967493 0.16648939 4278190080 2865
0.2472126 -0.061497312 0.16306981 4278190080 3856
0.24799168 -0.061530814 0.16303526 4278190080 3883
0.24848437 -0.062375046 0.162174 4278190080 4083
0.24686952 -0.061026007 0.16501895 4278190080 3414
0.2420927 -0.059453364 0.16666578 4278190080 2704
0.24286462 -0.061111953 0.16658635 4278190080 2768
0.24900912 -0.061864279 0.16226794 4278190080 4058
0.24732405 -0.062937722 0.16400266 4278190080 3807
0.24533702 -0.0598878 0.16364533 4278190080 3442
0.24148338 -0.06274835 0.16606845 4278190080 2820
0.24292631 -0.06401857 0.16567484 4278190080 3135
0.24526544 -0.060880113 0.16464955 4278190080 3293
0.2418609 -0.062243391 0.16643648 4278190080 2825
0.24423207 -0.062314253 0.16581814 4278190080 3140
0.24084242 -0.062070429 0.16677611 4278190080 2720
0.2428022 -0.061821844 0.16303217 4278190080 3589
0.24236774 -0.062569991 0.16382369 4278190080 3260
0.24317017 -0.061309975 0.16306609 4278190080 3447
0.24255586 -0.062323153 0.16384414 4278190080 3257
0.24352409 -0.061131764 0.1631736 4278190080 3505
0.24141026 -0.065565355 0.16442002 4278190080 3194
0.24275693 -0.064237393 0.16466759 4278190080 3205
0.24643694 -0.064030632 0.16172504 4278190080 4028
0.24497761 -0.065085657 0.16354752 4278190080 3842
0.24394175 -0.061629456 0.16426682 4278190080 3279
0.24547198 -0.064603738 0.16363615 4278190080 3810
0.24766138 -0.064641275 0.16019531 4278190080 4330
0.2468385 -0.06586951 0.16158508 4278190080 4185
0.2439661 -0.063146196 0.16491446 4278190080 3250
0.24168301 -0.063846059 0.16250895 4278190080 3618
0.24457169 -0.065345928 0.16126889 4278190080 4073
0.24649096 -0.065653726 0.15958646 4278190080 4336
0.2418084 -0.06305223 0.16290431 4278190080 3466
0.24698985 -0.067303009 0.1566608 4278190080 4534
0.24694158 -0.06544777 0.15847343 4278190080 4484
0.24700606 -0.066745318 0.15823255 4278190080 4736
0.24734068 -0.066085637 0.15859298 4278190080 4789
0.24722011 -0.068256132 0.15676892 4278190080 4756
0.24642943 -0.068252392 0.16021466 4278190080 4475
0.24351606 -0.067226954 0.16346268 4278190080 3801
0.24324788 -0.068447508 0.15843779 4278190080 4674
0.24295062 -0.06983041 0.15827866 4278190080 4580
0.24286401 -0.070156403 0.15832193 4278190080 4570
0.24355327 -0.068226226 0.15851 4278190080 4686
0.24378112 -0.068759739 0.15835989 4278190080 4522
0.24424255 -0.06882637 0.1576084 4278190080 4783
0.2411245 -0.069385208 0.16081889 4278190080 4049
0.24105442 -0.070111774 0.16060914 4278190080 4047
0.24132353 -0.072263047 0.15856832 4278190080 4651
0.24389534 -0.070753671 0.15747359 4278190080 4836
0.24359782 -0.068230011 0.15976973 4278190080 4407
0.24091884 -0.072784677 0.15852787 4278190080 4628
0.24403057 -0.068127222 0.15955336 4278190080 4308
0.24422233 -0.07102257 0.15691456 4278190080 4862
0.24110897 -0.072936572 0.15827525 4278190080 4551
0.24047135 -0.067892589 0.16181736 4278190080 3865
0.24002479 -0.068711422 0.161832 4278190080 3879
0.23965248 -0.069215007 0.16179998 4278190080 3880
0.24396974 -0.071649626 0.15696152 4278190080 4858
0.23954572 -0.069507919 0.16182747 4278190080 3859
0.24435619 -0.067917705 0.1596359 4278190080 4315
0.2438242 -0.07195285 0.15697482 4278190080 4843
0.24109288 -0.073489472 0.15781417 4278190080 4780
0.2431168 -0.0668092 0.16101995 4278190080 4023
0.244284 -0.069456331 0.15962413 4278190080 4467
0.24554379 -0.068536289 0.15761755 4278190080 4860
0.23828192 -0.073430531 0.15884146 4278190080 4421
0.24429706 -0.071920581 0.15640077 4278190080 4823
0.23915775 -0.070348106 0.161872 4278190080 3878
0.24532273 -0.070538566 0.1564813 4278190080 4873
0.24487178 -0.071505688 0.15615147 4278190080 4840
0.23944989 -0.072404653 0.1608586 4278190080 4031
0.24202143 -0.066214398 0.16205406 4278190080 3858
0.24603398 -0.069207616 0.15652853 4278190080 4731
0.24440235 -0.072457947 0.15581271 4278190080 4865
0.24421026 -0.072738193 0.15580346 4278190080 4878
0.24610014 -0.069671214 0.15628502 4278190080 4797
0.24572971 -0.066337198 0.15857211 4278190080 4706
0.24411952 -0.066627309 0.16102879 4278190080 4035
0.24283385 -0.073668294 0.15747903 4278190080 4974
0.24628982 -0.068033695 0.15748967 4278190080 4728
0.23992406 -0.065502346 0.16268981 4278190080 3479
0.24530654 -0.066898227 0.15977801 4278190080 4401
0.24370697 -0.073377356 0.15630339 4278190080 5209
0.24585439 -0.066021442 0.15854688 4278190080 4576
0.2376446 -0.074148253 0.15875304 4278190080 4323
0.24613334 -0.067043081 0.15832908 4278190080 4764
0.24528018 -0.068825051 0.15988076 4278190080 4462
0.24605389 -0.070567243 0.15534104 4278190080 4809
0.23797965 -0.074384958 0.15859208 4278190080 4397
0.24533872 -0.066121779 0.15997545 4278190080 4286
0.24269117 -0.074318312 0.15650348 4278190080 5146
0.24351045 -0.073694468 0.15738299 4278190080 4966
