# .PCD v0.7 - Point Cloud Data file format
VERSION 0.7
FIELDS x y z rgb
SIZE 4 4 4 4
TYPE F F F U
COUNT 1 1 1 1
WIDTH 1050
HEIGHT 1
VIEWPOINT 0 0 0 1 0 0 0
POINTS 1050
DATA ascii
0.2484073 -0.12865034 0.13781904 4278190080
0.24778165 -0.12886983 0.15501086 4278190080
0.24779162 -0.12910353 0.15788838 4278190080
0.24743703 -0.13026424 0.15796161 4278190080
0.24755557 -0.13044104 0.15510921 4278190080
0.24732269 -0.13061881 0.15225832 4278190080
0.24776947 -0.13076086 0.14995433 4278190080
0.24776639 -0.1302091 0.14936881 4278190080
0.24791063 -0.13079463 0.14940472 4278190080
0.24776579 -0.13083501 0.14876051 4278190080
0.24714716 -0.13097352 0.14655556 4278190080
0.24649419 -0.13115218 0.14370586 4278190080
0.24702001 -0.13132815 0.14085247 4278190080
0.24772754 -0.1297524 0.13788964 4278190080
0.2472674 -0.13150468 0.138 4278190080
0.27626157 -0.11127597 0.13986963 4278190080
0.27572846 -0.11129911 0.13951904 4278190080
0.27626383 -0.11270375 0.13960463 4278190080
0.27339524 -0.11146296 0.1369777 4278190080
0.27314624 -0.11148236 0.13667575 4278190080
0.27339607 -0.11220919 0.13672012 4278190080
0.27420372 -0.11433145 0.13684946 4278190080
0.2762655 -0.11418653 0.1390973 4278190080
0.27561322 -0.11717981 0.13702208 4278190080
0.2762675 -0.11713903 0.13765192 4278190080
0.27626884 -0.11847542 0.13710061 4278190080
0.2592698 -0.14937033 0.15911257 4278190080
0.25641149 -0.15026735 0.15816166 4278190080
0.25641212 -0.1491435 0.15910736 4278190080
0.25926936 -0.15024771 0.15836267 4278190080
0.26212782 -0.14966054 0.15912169 4278190080
0.26212731 -0.15022577 0.15859582 4278190080
0.26498571 -0.14997888 0.15913263 4278190080
0.26498553 -0.15019819 0.15892304 4278190080
0.2678425 -0.14986315 0.15911657 4278190080
0.26784223 -0.15020034 0.15877073 4278190080
0.27069825 -0.14926717 0.15907064 4278190080
0.27069661 -0.15024579 0.15791936 4278190080
0.273554 -0.14872961 0.15902835 4278190080
0.27355096 -0.15029417 0.15702365 4278190080
0.27640921 -0.14797164 0.15897244 4278190080
0.27640623 -0.15032427 0.15642171 4278190080
0.1986637 0.026171774 0.097606227 4278190080
0.19866177 0.02595092 0.096877247 4278190080
0.19703281 0.026121948 0.096871689 4278190080
0.20152487 0.026257984 0.09887585 4278190080
0.20152068 0.025263265 0.096911103 4278190080
0.20437962 0.026217984 0.098114178 4278190080
0.20437808 0.025176695 0.09690769 4278190080
0.20723288 0.026148586 0.096878633 4278190080
0.20723288 0.026104579 0.096841186 4278190080
0.20729178 0.02614625 0.096838385 4278190080
0.19580381 0.026109427 0.096720397 4278190080
0.19866286 0.023162898 0.095253795 4278190080
0.19580601 0.02316083 0.095338121 4278190080
0.2015174 0.023118477 0.094421014 4278190080
0.20437174 0.023938386 0.094121963 4278190080
0.20212178 0.0231051 0.094180703 4278190080
0.20722683 0.024733802 0.094063684 4278190080
0.21008104 0.025986334 0.094149321 4278190080
0.21008085 0.025833858 0.093986511 4278190080
0.21038736 0.025976384 0.093976676 4278190080
0.20436895 0.023014583 0.092629775 4278190080
0.20722224 0.022945754 0.091404215 4278190080
0.2100765 0.023794837 0.091250345 4278190080
0.20744354 0.022940572 0.091311514 4278190080
0.21293437 0.025917295 0.092920095 4278190080
0.21293272 0.024178322 0.091217697 4278190080
0.21578909 0.025876651 0.092147902 4278190080
0.21578854 0.024706302 0.091176033 4278190080
0.21007568 0.022887774 0.090353668 4278190080
0.21293142 0.022866953 0.089900702 4278190080
0.21578783 0.022860473 0.089678466 4278190080
0.19866192 0.022151466 0.094250679 4278190080
0.19580488 0.02212102 0.094261438 4278190080
0.20151718 0.022893004 0.094195724 4278190080
0.19580375 0.020121608 0.09249562 4278190080
0.19866003 0.020114757 0.092267796 4278190080
0.20151381 0.020475134 0.091483161 4278190080
0.20083202 0.020073269 0.091510266 4278190080
0.20436686 0.022105314 0.091373011 4278190080
0.20722213 0.022865955 0.091316894 4278190080
0.20151331 0.020044271 0.091015279 4278190080
0.2043637 0.019919937 0.088896126 4278190080
0.20721921 0.020237727 0.088617548 4278190080
0.20558137 0.019907357 0.088643149 4278190080
0.21007405 0.021021342 0.08856003 4278190080
0.21293025 0.021402223 0.088527575 4278190080
0.2157872 0.021458995 0.088515133 4278190080
0.19865996 0.019179914 0.091572523 4278190080
0.19580325 0.019017253 0.091591477 4278190080
0.19580103 0.017077237 0.089572415 4278190080
0.19865786 0.01707828 0.089471757 4278190080
0.20151359 0.017057288 0.089015201 4278190080
0.20436375 0.019585395 0.088666961 4278190080
0.20180814 0.017046686 0.088832572 4278190080
0.19865777 0.016303603 0.088888511 4278190080
0.19580093 0.016201355 0.08890377 4278190080
0.2015136 0.016832765 0.088846743 4278190080
0.24483684 -0.090351202 0.15542474 4278190080
0.2448308 -0.091609545 0.15270454 4278190080
0.24438542 -0.090525411 0.15263852 4278190080
0.24607784 -0.093373142 0.15281019 4278190080
0.24485244 -0.090347178 0.1554887 4278190080
0.24572542 -0.093196772 0.15566304 4278190080
0.24482149 -0.091627724 0.14984301 4278190080
0.24451813 -0.090702273 0.14978647 4278190080
0.24582155 -0.093550868 0.14995942 4278190080
0.24481061 -0.091079086 0.14694634 4278190080
0.24475747 -0.090878829 0.14693406 4278190080
0.2456807 -0.093728334 0.14710823 4278190080
0.24480872 -0.090905949 0.14649501 4278190080
0.24516132 -0.091055036 0.14408094 4278190080
0.2454699 -0.09390635 0.14425716 4278190080
0.24479662 -0.091145806 0.14263543 4278190080
0.2448016 -0.094042175 0.14209759 4278190080
0.24462061 -0.094085522 0.14140818 4278190080
0.24455085 -0.091233641 0.14123121 4278190080
0.242777 -0.091414891 0.13838542 4278190080
0.24357273 -0.094265059 0.13856003 4278190080
0.24192354 -0.091468029 0.13756573 4278190080
0.24192356 -0.094113171 0.13569301 4278190080
0.24055916 -0.091597281 0.13554084 4278190080
0.24222367 -0.094445378 0.13571271 4278190080
0.24534078 -0.096049711 0.15584144 4278190080
0.24532405 -0.096226901 0.15298986 4278190080
0.24532372 -0.096404031 0.15013826 4278190080
0.24527876 -0.096581273 0.14728674 4278190080
0.24535967 -0.096758254 0.14443469 4278190080
0.24480273 -0.095393993 0.14148897 4278190080
0.2450386 -0.096936159 0.14158407 4278190080
0.24480334 -0.097001821 0.14053604 4278190080
0.24433011 -0.097114921 0.13873479 4278190080
0.24315473 -0.097294867 0.13588688 4278190080
0.24484518 -0.0973012 0.15305811 4278190080
0.24485368 -0.096933722 0.15589795 4278190080
0.24339104 -0.098905906 0.15602496 4278190080
0.24393907 -0.09908177 0.15317157 4278190080
0.24483709 -0.097822025 0.15022787 4278190080
0.24438103 -0.099257857 0.15031847 4278190080
0.2448279 -0.097934924 0.14737225 4278190080
0.24440148 -0.099434979 0.14746675 4278190080
0.24482049 -0.098717742 0.14455816 4278190080
0.24456476 -0.099611782 0.14461455 4278190080
0.24481066 -0.098550297 0.14168516 4278190080
0.24457918 -0.099788897 0.14176279 4278190080
0.24417068 -0.099966973 0.13891247 4278190080
0.24374107 -0.10014513 0.13606215 4278190080
0.24200483 -0.10025069 0.15611288 4278190080
0.24074908 -0.10176378 0.15621081 4278190080
0.24200295 -0.10187294 0.15440238 4278190080
0.24289601 -0.10193589 0.15335223 4278190080
0.24427545 -0.10210982 0.15049607 4278190080
0.24417533 -0.10228718 0.14764467 4278190080
0.24433926 -0.102464 0.14479244 4278190080
0.24436916 -0.10264107 0.14194068 4278190080
0.24423717 -0.10281849 0.13908944 4278190080
0.2438882 -0.10299648 0.13623893 4278190080
0.23915672 -0.10385814 0.15634637 4278190080
0.23880582 -0.10461982 0.15639479 4278190080
0.23915602 -0.10467224 0.15553558 4278190080
0.24200143 -0.10261528 0.15339723 4278190080
0.24019423 -0.10479368 0.15353814 4278190080
0.24199948 -0.10493486 0.15119138 4278190080
0.24239472 -0.10496561 0.15067935 4278190080
0.24400331 -0.10513901 0.14782244 4278190080
0.24439539 -0.10531525 0.1449694 4278190080
0.24468392 -0.10549172 0.14211681 4278190080
0.24481706 -0.10566854 0.13926473 4278190080
0.24481881 -0.10567616 0.13914233 4278190080
0.24480973 -0.10564606 0.13640064 4278190080
0.24485624 -0.10584559 0.13641292 4278190080
0.23915464 -0.10674691 0.15366277 4278190080
0.23891257 -0.10764836 0.15371951 4278190080
0.23690079 -0.10747597 0.1565782 4278190080
0.23915589 -0.107668 0.15339354 4278190080
0.24200068 -0.10607862 0.15074974 4278190080
0.24160019 -0.10781918 0.15085909 4278190080
0.24200328 -0.1078537 0.15028709 4278190080
0.24393652 -0.10799084 0.14799985 4278190080
0.24468783 -0.10816624 0.14514568 4278190080
0.24484143 -0.108224 0.1442098 4278190080
0.24483009 -0.10625384 0.14216372 4278190080
0.24519089 -0.10834224 0.14229238 4278190080
0.2448193 -0.1056809 0.13926551 4278190080
0.24534062 -0.108519 0.13944018 4278190080
0.2454586 -0.10869585 0.13658816 4278190080
0.23631452 -0.11035722 0.15630935 4278190080
0.23631239 -0.10892577 0.15667011 4278190080
0.23879841 -0.11050066 0.15389708 4278190080
0.23916298 -0.11052138 0.15354905 4278190080
0.24182299 -0.1106707 0.15103558 4278190080
0.24201159 -0.11068337 0.15082386 4278190080
0.24486071 -0.11083733 0.14822805 4278190080
0.24486014 -0.11069744 0.14816517 4278190080
0.24501196 -0.11084037 0.14817354 4278190080
0.24484499 -0.10843074 0.1451616 4278190080
0.24616931 -0.11101481 0.14531803 4278190080
0.24540582 -0.11119379 0.14246881 4278190080
0.24516039 -0.11137146 0.13961801 4278190080
0.24586625 -0.11154695 0.13676402 4278190080
0.27146986 -0.090284139 0.15540239 4278190080
0.27341208 -0.093172297 0.15491247 4278190080
0.2724143 -0.093133584 0.15557653 4278190080
0.27340353 -0.09034656 0.15431836 4278190080
0.27625892 -0.090372972 0.15377599 4278190080
0.27626622 -0.093222909 0.1539804 4278190080
0.27341968 -0.095363297 0.15571198 4278190080
0.27627566 -0.096029624 0.15488589 4278190080
0.27378377 -0.095982365 0.15574932 4278190080
0.27628136 -0.097167805 0.1558153 4278190080
0.27623466 -0.10483524 0.13625315 4278190080
0.27567801 -0.10577266 0.13631308 4278190080
0.27623829 -0.10574532 0.13673002 4278190080
0.2743125 -0.10862757 0.13649476 4278190080
0.27624995 -0.10850894 0.1383245 4278190080
0.27625778 -0.11024252 0.13945177 4278190080
0.27572846 -0.11129911 0.13951904 4278190080
0.27626157 -0.11127597 0.13986963 4278190080
0.27339232 -0.11073913 0.13662887 4278190080
0.27314624 -0.11148236 0.13667575 4278190080
0.27339524 -0.11146296 0.1369777 4278190080
0.21596695 -0.023669876 0.11135773 4278190080
0.21882543 -0.024217689 0.1113831 4278190080
0.21882671 -0.024433469 0.11163478 4278190080
0.21597126 -0.024409853 0.11213337 4278190080
0.219116 -0.024447555 0.11139651 4278190080
0.21598592 -0.027113004 0.11470024 4278190080
0.21598448 -0.026872024 0.11441928 4278190080
0.21667098 -0.027127795 0.11443307 4278190080
0.2188393 -0.027178368 0.11352909 4278190080
0.22168885 -0.026755849 0.11153185 4278190080
0.22169177 -0.027263103 0.11204801 4278190080
0.22308049 -0.027289828 0.11156072 4278190080
0.23597534 -0.02714498 0.11151189 4278190080
0.23597606 -0.027251184 0.11165039 4278190080
0.2352152 -0.027261157 0.11152145 4278190080
0.21884444 -0.028049072 0.11448365 4278190080
0.21885376 -0.029886423 0.11601952 4278190080
0.21599649 -0.029897545 0.11595875 4278190080
0.22143786 -0.029968357 0.11459494 4278190080
0.23599021 -0.029280988 0.11450717 4278190080
0.23599409 -0.029890191 0.11525193 4278190080
0.23436077 -0.029937826 0.11455297 4278190080
0.22077236 -0.030147023 0.11174543 4278190080
0.22169495 -0.029177081 0.1116823 4278190080
0.23349459 -0.030117027 0.11170416 4278190080
0.21600609 -0.031758979 0.11758557 4278190080
0.21886462 -0.032345023 0.1176133 4278190080
0.21886607 -0.0326357 0.11784135 4278190080
0.21601091 -0.032605052 0.11845379 4278190080
0.21922182 -0.032647882 0.11763102 4278190080
0.2360079 -0.032604497 0.1175763 4278190080
0.23600791 -0.032608103 0.1175794 4278190080
0.23599853 -0.032608274 0.11757655 4278190080
0.22170866 -0.030893693 0.11465159 4278190080
0.22171526 -0.032783173 0.11534977 4278190080
0.22325958 -0.032815501 0.11476624 4278190080
0.23495509 -0.032787908 0.1147283 4278190080
0.21598431 -0.030612471 0.11178906 4278190080
0.21885122 -0.0329271 0.113152 4278190080
0.21884182 -0.030800283 0.111792 4278190080
0.21599452 -0.032926969 0.11327252 4278190080
0.22171216 -0.032844789 0.11435863 4278190080
0.23599789 -0.032803688 0.11443211 4278190080
0.23598367 -0.030481467 0.11171919 4278190080
0.21912365 -0.093391426 0.15362474 4278190080
0.21671507 -0.093265086 0.15575726 4278190080
0.21627291 -0.093121275 0.15574972 4278190080
0.21912058 -0.093109123 0.15287754 4278190080
0.21626136 -0.092241883 0.15283246 4278190080
0.21997574 -0.09343458 0.15289512 4278190080
0.21911094 -0.092998348 0.15000805 4278190080
0.2162497 -0.09133178 0.14991324 4278190080
0.21971869 -0.093612321 0.15004432 4278190080
0.21625108 -0.093705691 0.14868371 4278190080
0.21911122 -0.093637489 0.14966437 4278190080
0.21913365 -0.094566539 0.15583065 4278190080
0.22198388 -0.09557578 0.15302184 4278190080
0.22199269 -0.096144706 0.15527305 4278190080
0.22181985 -0.096105084 0.15591791 4278190080
0.22247051 -0.096280769 0.15306413 4278190080
0.2191949 -0.096465558 0.15022314 4278190080
0.22198384 -0.096317694 0.15248954 4278190080
0.21911953 -0.096468598 0.1501776 4278190080
0.21625967 -0.096530095 0.14930482 4278190080
0.22199959 -0.098060757 0.15603888 4278190080
0.22210585 -0.098956063 0.15609419 4278190080
0.22249886 -0.099132314 0.15324125 4278190080
0.21912012 -0.096647963 0.1502347 4278190080
0.21748647 -0.099321209 0.15040578 4278190080
0.21912886 -0.099279106 0.15101585 4278190080
0.22199152 -0.09916316 0.15276533 4278190080
0.21626849 -0.099351071 0.14997585 4278190080
0.21915166 -0.10173158 0.15627636 4278190080
0.21915112 -0.10183032 0.15602934 4278190080
0.21902472 -0.10181503 0.15628193 4278190080
0.22199635 -0.10044599 0.15332446 4278190080
0.22085184 -0.10198787 0.15342379 4278190080
0.22200227 -0.099106923 0.15610388 4278190080
0.21627118 -0.099817075 0.15044038 4278190080
0.21628185 -0.10207998 0.15212877 4278190080
0.21914132 -0.10202518 0.1528936 4278190080
0.21914478 -0.10267618 0.15347189 4278190080
0.21629052 -0.10382026 0.15355177 4278190080
0.21638396 -0.10467268 0.15646759 4278190080
0.21630168 -0.10468078 0.15634033 4278190080
0.21630244 -0.10482242 0.15647712 4278190080
0.2363124 -0.10892554 0.15667011 4278190080
0.23592658 -0.11033034 0.15675862 4278190080
0.23631454 -0.11035721 0.15630926 4278190080
0.24193628 -0.072982475 0.15441866 4278190080
0.24193598 -0.073263019 0.1541252 4278190080
0.24013202 -0.073425174 0.15158914 4278190080
0.23953111 -0.070397727 0.15426554 4278190080
0.23917136 -0.070575692 0.15141506 4278190080
0.24217932 -0.073243201 0.15443413 4278190080
0.25174758 -0.070368573 0.15422599 4278190080
0.25336012 -0.073295288 0.15313004 4278190080
0.25159448 -0.073220663 0.1544037 4278190080
0.25335303 -0.070440933 0.1529959 4278190080
0.25537434 -0.070537224 0.15136255 4278190080
0.25621146 -0.073082931 0.15151812 4278190080
0.25621295 -0.073372744 0.15176575 4278190080
0.23906329 -0.070585854 0.15125628 4278190080
0.23906003 -0.072791681 0.14869036 4278190080
0.23756051 -0.070756659 0.14856862 4278190080
0.23976444 -0.07360322 0.14873867 4278190080
0.25620237 -0.070586547 0.15053423 4278190080
0.23619106 -0.070892394 0.14643951 4278190080
0.23803481 -0.073784374 0.14589261 4278190080
0.2361903 -0.071536317 0.14575867 4278190080
0.23905863 -0.073672928 0.14764465 4278190080
0.23656785 -0.073964983 0.14304574 4278190080
0.23618531 -0.073325962 0.14300723 4278190080
0.23618309 -0.074042283 0.14181747 4278190080
0.25617662 -0.071095206 0.14234783 4278190080
0.25469542 -0.071247414 0.1399581 4278190080
0.25617284 -0.072745904 0.14004664 4278190080
0.25330764 -0.071337551 0.13856383 4278190080
0.25189126 -0.071431115 0.13711561 4278190080
0.25330731 -0.073082142 0.13721375 4278190080
0.2544924 -0.074276708 0.13728435 4278190080
0.25617206 -0.074179448 0.13878085 4278190080
0.23616003 -0.074497283 0.13449414 4278190080
0.23713286 -0.071643434 0.13431163 4278190080
0.23615479 -0.07160712 0.13493623 4278190080
0.23616119 -0.074497446 0.13449202 4278190080
0.25044039 -0.071545213 0.13533904 4278190080
0.24884713 -0.071615927 0.13427351 4278190080
0.25044081 -0.073103867 0.13436137 4278190080
0.2514146 -0.074461155 0.13444267 4278190080
0.25330666 -0.074350215 0.13614999 4278190080
0.24193344 -0.075570777 0.15171684 4278190080
0.24254201 -0.076271147 0.15175848 4278190080
0.2430314 -0.076092869 0.15460853 4278190080
0.25336885 -0.076117955 0.15377323 4278190080
0.25205153 -0.07607121 0.15457945 4278190080
0.25622749 -0.076081343 0.15424548 4278190080
0.24193096 -0.076356336 0.15041246 4278190080
0.24122094 -0.076451413 0.1489111 4278190080
0.23905653 -0.075207345 0.1459779 4278190080
0.24008691 -0.07663127 0.14606316 4278190080
0.23905532 -0.076730691 0.14450489 4278190080
0.23814736 -0.076812938 0.14321782 4278190080
0.23711498 -0.076992497 0.14036949 4278190080
0.23618035 -0.075095698 0.14025445 4278190080
0.23617695 -0.077157378 0.13775395 4278190080
0.25617054 -0.075533204 0.13735722 4278190080
0.23616008 -0.074508727 0.13449277 4278190080
0.25330582 -0.076242633 0.13454755 4278190080
0.25507572 -0.077304266 0.13460802 4278190080
0.25616771 -0.077259816 0.1352786 4278190080
0.24396896 -0.078942671 0.15478267 4278190080
0.24416737 -0.079119325 0.15193038 4278190080
0.25337762 -0.078602515 0.15473257 4278190080
0.25622952 -0.076465867 0.15459101 4278190080
0.24192974 -0.077844165 0.14899547 4278190080
0.24263754 -0.079300098 0.14908369 4278190080
0.24192937 -0.079382382 0.14778821 4278190080
0.24117692 -0.079480655 0.14623682 4278190080
0.23905462 -0.078221262 0.14330243 4278190080
0.23997955 -0.079660624 0.14338903 4278190080
0.23905349 -0.079758458 0.14185269 4278190080
0.23822409 -0.079841882 0.14054303 4278190080
0.23690379 -0.080022141 0.13769574 4278190080
0.23617716 -0.077546105 0.13754411 4278190080
0.23617594 -0.080169275 0.13535817 4278190080
0.25616688 -0.077859946 0.13463913 4278190080
0.24344164 -0.081795558 0.15496163 4278190080
0.24341394 -0.081972748 0.15211008 4278190080
0.24349792 -0.082149722 0.14925809 4278190080
0.24192791 -0.080835901 0.14631869 4278190080
0.24273668 -0.08232867 0.14640896 4278190080
0.24192655 -0.08243046 0.14480327 4278190080
0.24134204 -0.082509086 0.1435618 4278190080
0.23905279 -0.081210397 0.14062552 4278190080
0.23994516 -0.082689516 0.14071463 4278190080
0.23905185 -0.082785547 0.13920568 4278190080
0.23822884 -0.082870677 0.13786863 4278190080
0.23690249 -0.083051011 0.13502125 4278190080
0.23617534 -0.080623865 0.13487266 4278190080
0.24338536 -0.084647313 0.15513903 4278190080
0.24328244 -0.084824681 0.15228778 4278190080
0.24354804 -0.085001215 0.14943519 4278190080
0.24422365 -0.085176803 0.14658141 4278190080
0.24192479 -0.08341676 0.14361635 4278190080
0.24286959 -0.085357144 0.14373398 4278190080
0.24192148 -0.085521467 0.14112765 4278190080
0.2418153 -0.085536741 0.1408858 4278190080
0.23905088 -0.084226236 0.13795027 4278190080
0.24004032 -0.085718066 0.13803989 4278190080
0.23905103 -0.085793182 0.1368708 4278190080
0.23761044 -0.085900933 0.13519618 4278190080
0.24395807 -0.087497622 0.15531442 4278190080
0.243728 -0.087675266 0.1524635 4278190080
0.24391048 -0.087851994 0.1496112 4278190080
0.24443221 -0.088027939 0.14675784 4278190080
0.24476391 -0.088204339 0.14390498 4278190080
0.24192114 -0.085703604 0.14089581 4278190080
0.24309269 -0.088385403 0.14105883 4278190080
0.24192271 -0.088491656 0.13939622 4278190080
0.24110623 -0.08856716 0.13821363 4278190080
0.23905376 -0.088732399 0.13563821 4278190080
0.23881955 -0.088749789 0.13536939 4278190080
0.24483697 -0.090316661 0.15548685 4278190080
0.24483684 -0.090351202 0.15542462 4278190080
0.24438545 -0.090525426 0.15263852 4278190080
0.24485245 -0.090347163 0.15548867 4278190080
0.24451815 -0.090702288 0.14978647 4278190080
0.2447575 -0.090878829 0.14693406 4278190080
0.24480873 -0.090905964 0.14649516 4278190080
0.24479449 -0.088404119 0.14391732 4278190080
0.24516132 -0.091055036 0.14408094 4278190080
0.24479662 -0.091145806 0.14263538 4278190080
0.24455088 -0.091233626 0.14123121 4278190080
0.24192262 -0.090033703 0.13830224 4278190080
0.24277703 -0.091414891 0.13838542 4278190080
0.23905358 -0.089014091 0.13538513 4278190080
0.24055919 -0.091597281 0.13554084 4278190080
0.24192354 -0.091468014 0.1375657 4278190080
0.25621143 -0.073082827 0.15151809 4278190080
0.25906593 -0.072053954 0.15144525 4278190080
0.2590723 -0.07332202 0.15246548 4278190080
0.25621295 -0.073372744 0.15176584 4278190080
0.26042411 -0.07337708 0.15152331 4278190080
0.25905541 -0.070661686 0.14920847 4278190080
0.25620237 -0.070586547 0.15053429 4278190080
0.25924867 -0.070705272 0.14849828 4278190080
0.26191652 -0.073169708 0.14864303 4278190080
0.26192126 -0.073476456 0.14986159 4278190080
0.26255143 -0.073549241 0.14866467 4278190080
0.25905195 -0.070729606 0.14811482 4278190080
0.2580348 -0.070885308 0.14565061 4278190080
0.25904673 -0.071873762 0.14570887 4278190080
0.26190841 -0.073721066 0.14581473 4278190080
0.26191804 -0.073727846 0.14581518 4278190080
0.25654468 -0.071065962 0.14280371 4278190080
0.25904042 -0.073140807 0.14292492 4278190080
0.26007634 -0.073909365 0.14296947 4278190080
0.2619085 -0.073728696 0.14580183 4278190080
0.25617659 -0.071095221 0.14234771 4278190080
0.25617281 -0.072745845 0.14004664 4278190080
0.25779966 -0.0740918 0.1401252 4278190080
0.25903863 -0.073984981 0.14179488 4278190080
0.27331877 -0.07388363 0.14006411 4278190080
0.27331951 -0.074048214 0.14018838 4278190080
0.27312034 -0.074055724 0.1400754 4278190080
0.27617323 -0.072882958 0.13999312 4278190080
0.27617934 -0.073987268 0.14105232 4278190080
0.25617203 -0.074179448 0.13878079 4278190080
0.27044716 -0.071363144 0.13744693 4278190080
0.27045396 -0.074221045 0.1375242 4278190080
0.27016082 -0.074239865 0.13723333 4278190080
0.26966596 -0.071389325 0.13705771 4278190080
0.27330685 -0.07130295 0.13829862 4278190080
0.27616495 -0.071276836 0.13860054 4278190080
0.26758498 -0.071468659 0.13586645 4278190080
0.26758695 -0.074421123 0.13442256 4278190080
0.26756284 -0.074423194 0.1343901 4278190080
0.26593295 -0.071575306 0.1342182 4278190080
0.25717011 -0.076059245 0.15456282 4278190080
0.25908384 -0.075377606 0.15451448 4278190080
0.25622746 -0.076081343 0.15424548 4278190080
0.26192856 -0.0741603 0.15156724 4278190080
0.26193887 -0.074541949 0.15445365 4278190080
0.26441506 -0.076219328 0.15168749 4278190080
0.26375967 -0.076043777 0.15454133 4278190080
0.26477912 -0.075365365 0.14877065 4278190080
0.26478893 -0.076256983 0.15106626 4278190080
0.26589966 -0.076392971 0.14883102 4278190080
0.26477072 -0.075707212 0.14592929 4278190080
0.26641077 -0.076568954 0.14597775 4278190080
0.26190314 -0.075303249 0.14305042 4278190080
0.26476336 -0.076542087 0.14311852 4278190080
0.26518753 -0.07674899 0.14313005 4278190080
0.25903594 -0.075102098 0.14018421 4278190080
0.26164636 -0.076934434 0.14028995 4278190080
0.26189891 -0.076912716 0.14062987 4278190080
0.26476195 -0.07678736 0.14252983 4278190080
0.27332294 -0.075581305 0.14016961 4278190080
0.27358386 -0.076906316 0.14025109 4278190080
0.27618811 -0.076806761 0.14174701 4278190080
0.25617054 -0.075533204 0.13735722 4278190080
0.25867301 -0.077118553 0.13744794 4278190080
0.25903293 -0.077095114 0.13781057 4278190080
0.2704559 -0.075338066 0.13730074 4278190080
0.27086544 -0.077089854 0.1374083 4278190080
0.27332583 -0.076916821 0.14009295 4278190080
0.25616768 -0.077259801 0.13527857 4278190080
0.26758707 -0.074495286 0.13439451 4278190080
0.26865342 -0.077272296 0.13456382 4278190080
0.27045855 -0.077125221 0.13685612 4278190080
0.25622949 -0.076465867 0.15459101 4278190080
0.26480278 -0.077220328 0.15461121 4278190080
0.26479185 -0.076628171 0.15171178 4278190080
0.26675776 -0.079065815 0.15185712 4278190080
0.26570651 -0.078891158 0.15471222 4278190080
0.2676439 -0.078372173 0.14894857 4278190080
0.2676504 -0.07915698 0.15035276 4278190080
0.26866671 -0.079238452 0.14899923 4278190080
0.26763237 -0.077513508 0.14603265 4278190080
0.27049795 -0.07933984 0.14729212 4278190080
0.27049297 -0.078876726 0.14610846 4278190080
0.27178574 -0.079408273 0.14613743 4278190080
0.26762432 -0.078028008 0.14320196 4278190080
0.27048337 -0.078772604 0.1432393 4278190080
0.27334288 -0.079573847 0.14340834 4278190080
0.27334225 -0.079533108 0.14327772 4278190080
0.27619782 -0.0788645 0.14322747 4278190080
0.27620116 -0.079543673 0.14377646 4278190080
0.26189825 -0.077120654 0.14030074 4278190080
0.26475769 -0.078046657 0.14034934 4278190080
0.26761809 -0.079313368 0.14041917 4278190080
0.26904789 -0.079768986 0.14044304 4278190080
0.27047899 -0.079715557 0.14124493 4278190080
0.27333793 -0.079670578 0.14185144 4278190080
0.27338952 -0.079758815 0.14042898 4278190080
0.25903222 -0.077353261 0.13746144 4278190080
0.26189318 -0.078902341 0.1375487 4278190080
0.26475233 -0.07970237 0.13758959 4278190080
0.26559517 -0.079954363 0.13760258 4278190080
0.26761511 -0.079850763 0.13918634 4278190080
0.27333331 -0.079763763 0.14035119 4278190080
0.27104566 -0.079941459 0.13758488 4278190080
0.25616685 -0.077859931 0.13463913 4278190080
0.25902671 -0.078943022 0.13469751 4278190080
0.26157576 -0.080141 0.13476406 4278190080
0.26188821 -0.080117293 0.13513263 4278190080
0.2647512 -0.079991885 0.13703258 4278190080
0.27045816 -0.080050483 0.13473083 4278190080
0.27051663 -0.080119938 0.13473494 4278190080
0.26766431 -0.081873581 0.15270405 4278190080
0.26766038 -0.081197008 0.15198667 4278190080
0.26688057 -0.081740037 0.15488552 4278190080
0.26817229 -0.081914112 0.15202974 4278190080
0.2705076 -0.080983661 0.14910199 4278190080
0.27051395 -0.082015485 0.15030213 4278190080
0.27200696 -0.082082257 0.14916556 4278190080
0.27335379 -0.080312386 0.14618881 4278190080
0.27336532 -0.082122669 0.14845969 4278190080
0.27621329 -0.081279539 0.14624022 4278190080
0.27622011 -0.082161821 0.14771126 4278190080
0.27047759 -0.080203593 0.14046563 4278190080
0.27333376 -0.079814263 0.14043258 4278190080
0.26761162 -0.080574721 0.13763492 4278190080
0.27046874 -0.080507919 0.13762186 4278190080
0.26188743 -0.080293335 0.13477255 4278190080
0.26474643 -0.081070237 0.13481192 4278190080
0.26760486 -0.081622928 0.13483737 4278190080
0.27045861 -0.080223829 0.13474162 4278190080
0.2676779 -0.084391445 0.15504795 4278190080
0.2705265 -0.084744558 0.15219846 4278190080
0.27052653 -0.084759668 0.15220878 4278190080
0.26776478 -0.084589586 0.15506005 4278190080
0.27053735 -0.084760204 0.15219939 4278190080
0.2733708 -0.08336404 0.14924112 4278190080
0.27337775 -0.084871478 0.15029114 4278190080
0.2762298 -0.084123574 0.14927951 4278190080
0.27623329 -0.084894374 0.14980474 4278190080
0.27053928 -0.087501414 0.15415412 4278190080
0.26936474 -0.087437496 0.15523207 4278190080
0.27327469 -0.087605417 0.15236768 4278190080
0.27339056 -0.087608784 0.1523084 4278190080
0.27624577 -0.087637074 0.15173504 4278190080
0.27054691 -0.089166351 0.15533587 4278190080
0.27339098 -0.087691545 0.15237269 4278190080
0.27340353 -0.090346545 0.15431839 4278190080
0.27146989 -0.090284124 0.15540239 4278190080
0.27625012 -0.088513263 0.15241492 4278190080
0.27625892 -0.090372972 0.15377599 4278190080
0.28489348 -0.16962977 0.11735168 4278190080
0.28391537 -0.16973023 0.12022363 4278190080
0.28490251 -0.16946076 0.12020381 4278190080
0.28391498 -0.16990741 0.11737199 4278190080
0.28488448 -0.1698359 0.11450177 4278190080
0.28402606 -0.17008424 0.11451988 4278190080
0.28487569 -0.17006753 0.11165358 4278190080
0.28418252 -0.17026107 0.11166777 4278190080
0.28486696 -0.17030568 0.10880548 4278190080
0.28440332 -0.17043774 0.10881515 4278190080
0.28485826 -0.1705768 0.10595971 4278190080
0.28473738 -0.17061414 0.10596241 4278190080
0.28485504 -0.17067923 0.10491051 4278190080
0.28508645 -0.17079045 0.10310969 4278190080
0.28556958 -0.17096645 0.10025649 4278190080
0.27919534 -0.17233247 0.12039985 4278190080
0.27918598 -0.17235029 0.11753824 4278190080
0.2763384 -0.17240503 0.12041314 4278190080
0.27632913 -0.17246142 0.11755402 4278190080
0.28205177 -0.17204994 0.12037352 4278190080
0.28204226 -0.17197371 0.11750612 4278190080
0.27917647 -0.17231886 0.11467366 4278190080
0.2763198 -0.17247714 0.11469235 4278190080
0.2820327 -0.17190494 0.11463918 4278190080
0.27916688 -0.17220399 0.11180387 4278190080
0.27631029 -0.17241496 0.11182582 4278190080
0.28202295 -0.17179766 0.11176991 4278190080
0.27915764 -0.17225465 0.10894418 4278190080
0.27630103 -0.17247418 0.10896666 4278190080
0.28201354 -0.17174509 0.10890378 4278190080
0.27914861 -0.17238748 0.10608979 4278190080
0.27629197 -0.17261928 0.10611305 4278190080
0.28200445 -0.17187104 0.106049 4278190080
0.27913955 -0.17256746 0.10323843 4278190080
0.27628294 -0.17277628 0.10326025 4278190080
0.28199553 -0.17208788 0.1031999 4278190080
0.28484964 -0.1709481 0.10312021 4278190080
0.27913067 -0.17274223 0.10038666 4278190080
0.27627414 -0.17299755 0.10041137 4278190080
0.28198671 -0.17233153 0.10035244 4278190080
0.28484148 -0.17135683 0.10028301 4278190080
0.27911568 -0.090373248 0.15365329 4278190080
0.27912617 -0.09315975 0.15487868 4278190080
0.27625889 -0.090372972 0.15377599 4278190080
0.27626619 -0.093222894 0.15398043 4278190080
0.28024366 -0.093115106 0.15555111 4278190080
0.28197461 -0.090331294 0.15421085 4278190080
0.28198153 -0.091555201 0.15544887 4278190080
0.28407392 -0.090254448 0.15536155 4278190080
0.27799028 -0.095972396 0.15573576 4278190080
0.27913111 -0.094253249 0.15562534 4278190080
0.27627563 -0.096029624 0.15488589 4278190080
0.27628133 -0.097167805 0.1558153 4278190080
0.27623829 -0.10574532 0.13672999 4278190080
0.27874881 -0.10576544 0.1363031 4278190080
0.27623466 -0.10483529 0.13625315 4278190080
0.27910444 -0.10855278 0.13750094 4278190080
0.2790947 -0.10601655 0.13631767 4278190080
0.27624992 -0.10850894 0.13832447 4278190080
0.27964735 -0.10861496 0.13647747 4278190080
0.27626154 -0.11127597 0.1398696 4278190080
0.27865636 -0.11129219 0.1395095 4278190080
0.27625775 -0.11024259 0.13945177 4278190080
0.2791169 -0.11130186 0.13933507 4278190080
0.28040609 -0.11146524 0.13665214 4278190080
0.27626154 -0.11127597 0.1398696 4278190080
0.27626383 -0.11270364 0.13960463 4278190080
0.27865636 -0.11129219 0.1395095 4278190080
0.27626544 -0.11418653 0.13909727 4278190080
0.2791169 -0.11130186 0.13933507 4278190080
0.27912149 -0.1142032 0.13871142 4278190080
0.28040609 -0.11146524 0.13665214 4278190080
0.28020367 -0.11431727 0.13682997 4278190080
0.27912548 -0.11711534 0.13791513 4278190080
0.27626747 -0.11713903 0.13765186 4278190080
0.28004879 -0.11716934 0.13700771 4278190080
0.27912566 -0.11835235 0.13708407 4278190080
0.27626884 -0.11847536 0.13710061 4278190080
0.27926645 -0.14800046 0.15896535 4278190080
0.2764062 -0.15032427 0.15642174 4278190080
0.27640918 -0.14797167 0.15897247 4278190080
0.27926284 -0.15032603 0.15627347 4278190080
0.28211951 -0.15016642 0.15622802 4278190080
0.279603 -0.15032676 0.15624574 4278190080
0.28212377 -0.14809792 0.15896274 4278190080
0.28498119 -0.14820927 0.15896074 4278190080
0.28497583 -0.14983295 0.15619847 4278190080
0.2821191 -0.1503363 0.15598817 4278190080
0.28497419 -0.15037186 0.15529968 4278190080
0.27910087 -0.13257614 0.11943363 4278190080
0.27624542 -0.13255049 0.1199673 4278190080
0.2791059 -0.13547149 0.11890794 4278190080
0.27624962 -0.1354593 0.11922419 4278190080
0.28195703 -0.13258857 0.11911564 4278190080
0.28196174 -0.13548841 0.11851753 4278190080
0.28481501 -0.13449642 0.11803135 4278190080
0.28342578 -0.13551065 0.11809871 4278190080
0.28481281 -0.13260734 0.11869663 4278190080
0.27760738 -0.13837624 0.11829473 4278190080
0.27625215 -0.13787881 0.11826804 4278190080
0.27911133 -0.13835591 0.11855756 4278190080
0.28196201 -0.13609697 0.11813964 4278190080
0.27967921 -0.1383712 0.118288 4278190080
0.27911079 -0.13850063 0.11829779 4278190080
0.28574315 -0.16884014 0.13447548 4278190080
0.28493902 -0.16895394 0.13162248 4278190080
0.28470096 -0.16901968 0.13162728 4278190080
0.28494129 -0.1689776 0.13229598 4278190080
0.2849296 -0.16899002 0.12876205 4278190080
0.28435883 -0.16919765 0.12877671 4278190080
0.28492078 -0.16927455 0.12591712 4278190080
0.28459761 -0.1693743 0.12592427 4278190080
0.28491446 -0.16950473 0.12381215 4278190080
0.28508195 -0.16955036 0.12307149 4278190080
0.28490251 -0.16946076 0.12020379 4278190080
0.28391537 -0.1697302 0.1202236 4278190080
0.28491113 -0.16957223 0.12272604 4278190080
0.27925524 -0.16989663 0.14028654 4278190080
0.2792469 -0.17032267 0.1374504 4278190080
0.27639866 -0.17013291 0.14031011 4278190080
0.27639031 -0.17052053 0.13747156 4278190080
0.28211156 -0.16956943 0.14025749 4278190080
0.2821033 -0.17001449 0.13742252 4278190080
0.28496751 -0.16910295 0.14021955 4278190080
0.28495878 -0.1693621 0.13737305 4278190080
0.27923757 -0.17034377 0.13458911 4278190080
0.27638122 -0.17064872 0.13461688 4278190080
0.28209352 -0.16986169 0.13455038 4278190080
0.28494874 -0.16910353 0.13449432 4278190080
0.27922836 -0.17037585 0.13172841 4278190080
0.27637205 -0.17074236 0.13176009 4278190080
0.28208396 -0.16979283 0.13168342 4278190080
0.27921975 -0.17074318 0.12888861 4278190080
0.27636334 -0.17103167 0.12891543 4278190080
0.28207561 -0.17022438 0.12884764 4278190080
0.27921101 -0.17105469 0.12604532 4278190080
0.27635458 -0.17132965 0.1260713 4278190080
0.28206676 -0.17047375 0.12600042 4278190080
0.27920294 -0.17153893 0.1232132 4278190080
0.27634627 -0.17174421 0.12323479 4278190080
0.28205886 -0.17108993 0.12317653 4278190080
0.28491253 -0.16969198 0.12308079 4278190080
0.27919534 -0.1723325 0.12039983 4278190080
0.2763384 -0.17240503 0.12041311 4278190080
0.28205177 -0.17204994 0.1203735 4278190080
0.24737209 0.0080595957 0.12661055 4278190080
0.24737309 0.0074762469 0.12650064 4278190080
0.24723569 0.0080502406 0.12646541 4278190080
0.24786563 0.0052000671 0.12664056 4278190080
0.24965073 0.0082330685 0.12930921 4278190080
0.25024304 0.0053776135 0.12940088 4278190080
0.25024244 0.0056933789 0.12946576 4278190080
0.2503207 0.0053830254 0.12948477 4278190080
0.24737689 0.0051594842 0.1260075 4278190080
0.24551807 0.0050173728 0.12379713 4278190080
0.24489896 0.007867544 0.12362197 4278190080
0.24450403 0.0078341849 0.12310134 4278190080
0.24450858 0.004932194 0.12246777 4278190080
0.24336241 0.0048351032 0.12095247 4278190080
0.24265933 0.00768513 0.12077759 4278190080
0.2416352 0.007598321 0.11942215 4278190080
0.24163954 0.0046924734 0.11872749 4278190080
0.24113339 0.0046526967 0.11810806 4278190080
0.24036023 0.0075025745 0.11793339 4278190080
0.23876727 0.0073783444 0.11599933 4278190080
0.23877189 0.0044764155 0.11536773 4278190080
0.23869349 0.0044697905 0.11526431 4278190080
0.23808849 0.0073200641 0.11508907 4278190080
0.23589854 0.0071419938 0.11231327 4278190080
0.23677447 0.0042880778 0.11241889 4278190080
0.23589872 0.0069903824 0.11225365 4278190080
0.2359015 0.0042052022 0.11112031 4278190080
0.25024813 0.0024848375 0.12891653 4278190080
0.24850246 0.0023498768 0.12681568 4278190080
0.25089216 0.0025326915 0.1296601 4278190080
0.24738221 0.0022683893 0.12555024 4278190080
0.24609385 0.0021670344 0.12397242 4278190080
0.24451385 0.0020449487 0.1220725 4278190080
0.24371612 0.0019842547 0.12112854 4278190080
0.24164501 0.001807341 0.11836573 4278190080
0.24157766 0.0018020933 0.11828382 4278190080
0.23877238 0.00415181 0.1152838 4278190080
0.239426 0.0016198527 0.11543912 4278190080
0.2387757 0.001559446 0.11449367 4278190080
0.23740789 0.0014379252 0.11259404 4278190080
0.23590623 0.0013065999 0.110542 4278190080
0.25025341 -0.00040264984 0.128517 4278190080
0.24895114 -0.00050073775 0.12699139 4278190080
0.25139472 -0.00031781729 0.12983564 4278190080
0.24738705 -0.00062304531 0.12508717 4278190080
0.24652176 -0.0006836275 0.12414825 4278190080
0.24451876 -0.00084962446 0.1215588 4278190080
0.24432358 -0.00086599094 0.12130374 4278190080
0.24164547 0.0014835375 0.1183034 4278190080
0.24220164 -0.0010481218 0.118459 4278190080
0.24164963 -0.0010948643 0.11772943 4278190080
0.23995712 -0.0012305933 0.11561461 4278190080
0.23878095 -0.0013307867 0.11405018 4278190080
0.2378526 -0.0014127115 0.11276981 4278190080
0.23591171 -0.0015810423 0.11014014 4278190080
0.25025791 -0.0033073036 0.12784153 4278190080
0.24962902 -0.0033508106 0.12716642 4278190080
0.25185332 -0.0031684181 0.13001138 4278190080
0.2473924 -0.0035112081 0.12467784 4278190080
0.24709766 -0.003533954 0.12432359 4278190080
0.24452138 -0.0021970107 0.12138584 4278190080
0.24477772 -0.0037165927 0.12147944 4278190080
0.24452434 -0.0037363723 0.12117153 4278190080
0.24271166 -0.0038986115 0.11863455 4278190080
0.24165466 -0.0039911158 0.11718905 4278190080
0.24047819 -0.004081028 0.11579013 4278190080
0.23878607 -0.0042241844 0.11355536 4278190080
0.23833911 -0.0042632283 0.11294544 4278190080
0.23627532 -0.0044452492 0.11010045 4278190080
0.23591317 -0.0024757618 0.10997917 4278190080
0.25026342 -0.0061920951 0.1274859 4278190080
0.25012675 -0.0062013571 0.12734255 4278190080
0.25244984 -0.0060187154 0.13018659 4278190080
0.24739516 -0.0050406624 0.12441628 4278190080
0.2476826 -0.0063842763 0.12449884 4278190080
0.24739744 -0.0064079864 0.12412882 4278190080
0.24554446 -0.0065664593 0.12165415 4278190080
0.24452858 -0.006647354 0.12039392 4278190080
0.24335533 -0.0067487685 0.11880961 4278190080
0.24165958 -0.0068887784 0.11662608 4278190080
0.24105282 -0.0069313836 0.11596549 4278190080
0.23878978 -0.0064583989 0.11308043 4278190080
0.23892029 -0.007113561 0.11312076 4278190080
0.23879083 -0.0071248603 0.11294425 4278190080
0.23677291 -0.0072957929 0.11027607 4278190080
0.25026485 -0.0069673648 0.12738967 4278190080
0.25064728 -0.0090517504 0.12751806 4278190080
0.25313604 -0.0088734347 0.13028583 4278190080
0.25313571 -0.0086497143 0.13034797 4278190080
0.25319266 -0.0088685853 0.13036141 4278190080
0.2502687 -0.0090815825 0.12705308 4278190080
0.24840051 -0.0092341891 0.12467374 4278190080
0.24740194 -0.0093132826 0.12344219 4278190080
0.24617761 -0.009416597 0.1218293 4278190080
0.24453305 -0.0095532257 0.11969766 4278190080
0.2439549 -0.0095989825 0.11898488 4278190080
0.24166338 -0.0092629241 0.11610843 4278190080
0.24178211 -0.0097813383 0.11614026 4278190080
0.24166423 -0.0097909337 0.11599074 4278190080
0.23946954 -0.009963965 0.11329617 4278190080
0.23879585 -0.010020671 0.11241081 4278190080
0.23721498 -0.010146418 0.1104518 4278190080
0.25314105 -0.01177013 0.12973928 4278190080
0.25122985 -0.011902137 0.12769333 4278190080
0.25379509 -0.01171892 0.13053665 4278190080
0.25027353 -0.011978841 0.12649763 4278190080
0.24905077 -0.012084415 0.12484883 4278190080
0.24740665 -0.012213392 0.12284078 4278190080
0.24670948 -0.012267111 0.12200479 4278190080
0.24453841 -0.012441434 0.119288 4278190080
0.24443863 -0.012449593 0.1191605 4278190080
0.24229236 -0.012631821 0.11631581 4278190080
0.24166931 -0.012683533 0.11550954 4278190080
0.24001083 -0.012814374 0.11347158 4278190080
0.23880056 -0.012920282 0.11181685 4278190080
0.23779459 -0.012996786 0.11062711 4278190080
0.18436684 0.025920294 0.0941476 4278190080
0.18436673 0.025841821 0.094065748 4278190080
0.18384865 0.025913693 0.094062872 4278190080
0.18722509 0.025949407 0.094498836 4278190080
0.18722546 0.025214452 0.094095819 4278190080
0.19008456 0.025997693 0.095156759 4278190080
0.19008797 0.023155643 0.094214916 4278190080
0.19017094 0.023076894 0.094219595 4278190080
0.1929477 0.023129895 0.094958127 4278190080
0.1929442 0.026053946 0.095945224 4278190080
0.19580382 0.026109423 0.096720427 4278190080
0.19580603 0.023160815 0.095338136 4278190080
0.18436143 0.024180302 0.091306008 4278190080
0.18244639 0.025733264 0.091215499 4278190080
0.18542708 0.022888528 0.091382958 4278190080
0.18722491 0.02295245 0.092338257 4278190080
0.190088 0.023073452 0.094167486 4278190080
0.18435405 0.02339738 0.088492058 4278190080
0.18262492 0.025556533 0.088363253 4278190080
0.184799 0.022709904 0.088533334 4278190080
0.1929469 0.022454944 0.094249547 4278190080
0.19580489 0.02212102 0.094261438 4278190080
0.18722937 0.02004806 0.091666259 4278190080
0.18688831 0.020040296 0.091555454 4278190080
0.19008814 0.020082695 0.092104554 4278190080
0.19294618 0.020107754 0.092390239 4278190080
0.19580378 0.020121608 0.09249562 4278190080
0.18661886 0.019862507 0.088704653 4278190080
0.18722932 0.019916419 0.091562085 4278190080
0.19008791 0.019437363 0.091583133 4278190080
0.19294584 0.019144475 0.091592446 4278190080
0.19580327 0.019017253 0.091591477 4278190080
0.18722148 0.019235514 0.088741772 4278190080
0.1897168 0.017018137 0.088871896 4278190080
0.19008482 0.017024187 0.088953972 4278190080
0.19294311 0.017054096 0.089317471 4278190080
0.19580105 0.017077237 0.089572415 4278190080
0.19008486 0.016907269 0.088877633 4278190080
0.19294305 0.016488254 0.08889477 4278190080
0.19580095 0.016201355 0.08890377 4278190080
0.25330046 -0.050525934 0.15101211 4278190080
0.25228634 -0.050583199 0.15013219 4278190080
0.25329992 -0.051477626 0.15018471 4278190080
0.25476637 -0.053428959 0.15030132 4278190080
0.25616577 -0.053349294 0.15152578 4278190080
0.25616071 -0.050457068 0.15200301 4278190080
0.25043702 -0.050656259 0.14903115 4278190080
0.25013489 -0.053616934 0.14746474 4278190080
0.25043938 -0.053602152 0.14768998 4278190080
0.24768505 -0.050771106 0.1472951 4278190080
0.25330094 -0.053508285 0.14908372 4278190080
0.23614492 -0.050849922 0.14650272 4278190080
0.23899864 -0.052144237 0.14454477 4278190080
0.23899786 -0.050925747 0.1451645 4278190080
0.23614497 -0.053498436 0.14463781 4278190080
0.24185511 -0.051885467 0.14451979 4278190080
0.24185473 -0.050923917 0.1450756 4278190080
0.24471614 -0.05341078 0.14460568 4278190080
0.24471618 -0.050832734 0.14642499 4278190080
0.24511488 -0.053805843 0.14462905 4278190080
0.24757951 -0.053695582 0.14630274 4278190080
0.24757567 -0.050777625 0.14719422 4278190080
0.23614499 -0.05384342 0.14439489 4278190080
0.2389999 -0.053880326 0.14368318 4278190080
0.24185759 -0.053860854 0.14387833 4278190080
0.24471608 -0.053828303 0.14428367 4278190080
0.25616762 -0.055748705 0.1504411 4278190080
0.25043917 -0.053841718 0.14747779 4278190080
0.25204381 -0.056464292 0.14763574 4278190080
0.25330672 -0.05638703 0.14882763 4278190080
0.25616768 -0.056302749 0.15006672 4278190080
0.24758022 -0.056154944 0.14476739 4278190080
0.24802844 -0.056650814 0.14479671 4278190080
0.25044173 -0.056549288 0.14633299 4278190080
0.23899876 -0.055901438 0.14191557 4278190080
0.23614438 -0.05685138 0.14205866 4278190080
0.2362946 -0.056855671 0.14198326 4278190080
0.24185705 -0.056343399 0.14193414 4278190080
0.24246715 -0.056841072 0.1419632 4278190080
0.24471961 -0.056753796 0.14327441 4278190080
0.24758011 -0.056678947 0.14436202 4278190080
0.23899873 -0.056898046 0.14119048 4278190080
0.24185707 -0.056866951 0.14157222 4278190080
0.25330663 -0.057894148 0.14772065 4278190080
0.25443622 -0.059310365 0.1478052 4278190080
0.25617331 -0.059186678 0.14972453 4278190080
0.2504437 -0.059398185 0.14496033 4278190080
0.25053084 -0.059496652 0.14496617 4278190080
0.25330678 -0.059377916 0.14676394 4278190080
0.23614435 -0.056954965 0.14198987 4278190080
0.24471915 -0.058294736 0.14204647 4278190080
0.24624866 -0.059683807 0.1421281 4278190080
0.2475826 -0.059624445 0.1430292 4278190080
0.25044376 -0.059502576 0.14487414 4278190080
0.23899829 -0.059445191 0.13927309 4278190080
0.23614375 -0.059854586 0.13979693 4278190080
0.23729457 -0.059882149 0.13930552 4278190080
0.24185568 -0.059553415 0.13927092 4278190080
0.24220751 -0.059870522 0.13928954 4278190080
0.24471918 -0.05975581 0.1410322 4278190080
0.23899798 -0.059904616 0.13887419 4278190080
0.24185544 -0.059891842 0.13896145 4278190080
0.23680829 -0.061849214 0.15374269 4278190080
0.23619047 -0.061923794 0.15256812 4278190080
0.23619156 -0.06081856 0.15368049 4278190080
0.25549543 -0.062159538 0.14797889 4278190080
0.25617734 -0.062100589 0.14889924 4278190080
0.25276807 -0.062343065 0.14513604 4278190080
0.2533102 -0.062305648 0.14571615 4278190080
0.24758188 -0.060543366 0.14217739 4278190080
0.24983259 -0.062527075 0.1422938 4278190080
0.25044394 -0.062492613 0.14282374 4278190080
0.23614378 -0.060504466 0.13934781 4278190080
0.2447176 -0.061449565 0.1393799 4278190080
0.24617226 -0.062712766 0.13945399 4278190080
0.24758117 -0.062642209 0.14053212 4278190080
0.2389973 -0.062851302 0.13662221 4278190080
0.23614426 -0.062836908 0.13786744 4278190080
0.23883344 -0.062907137 0.13662626 4278190080
0.24185325 -0.062357649 0.13658254 4278190080
0.2424114 -0.062898733 0.13661455 4278190080
0.24471685 -0.062793069 0.13822077 4278190080
0.23899734 -0.062908776 0.13659321 4278190080
0.24185295 -0.062933169 0.13608353 4278190080
0.23644215 -0.064878725 0.15106957 4278190080
0.23619092 -0.064321019 0.15103565 4278190080
0.23780371 -0.064698346 0.15391676 4278190080
0.25619781 -0.063970909 0.15381469 4278190080
0.25619739 -0.064695656 0.15319841 4278190080
0.25579461 -0.064655691 0.15385847 4278190080
0.23619092 -0.064907409 0.15061797 4278190080
0.25618091 -0.064753704 0.148138 4278190080
0.25330988 -0.062940188 0.1451716 4278190080
0.25480741 -0.065189488 0.14530675 4278190080
0.25618118 -0.065015025 0.14805804 4278190080
0.25044343 -0.062990718 0.14232095 4278190080
0.25280985 -0.06537132 0.14246155 4278190080
0.25330862 -0.065331221 0.14308678 4278190080
0.2475805 -0.063772254 0.1395155 4278190080
0.24955998 -0.065556534 0.13962011 4278190080
0.25044268 -0.065510035 0.14032476 4278190080
0.23614535 -0.064903863 0.13675867 4278190080
0.24471623 -0.064689927 0.13671868 4278190080
0.24585824 -0.065742321 0.13678057 4278190080
0.24757975 -0.06566485 0.13795705 4278190080
0.23614596 -0.065796234 0.1363119 4278190080
0.23899995 -0.06585113 0.13531192 4278190080
0.24185646 -0.065856241 0.13511209 4278190080
0.2447149 -0.065824024 0.13551216 4278190080
0.23906247 -0.066359632 0.15401612 4278190080
0.23906206 -0.06761501 0.15299626 4278190080
0.23768568 -0.067727424 0.15124266 4278190080
0.2397469 -0.067545466 0.15408768 4278190080
0.25619769 -0.067639977 0.15117995 4278190080
0.25617296 -0.067683607 0.15118276 4278190080
0.25447091 -0.067510456 0.15403996 4278190080
0.23619255 -0.067869753 0.14901282 4278190080
0.25619766 -0.067685828 0.15114592 4278190080
0.25565809 -0.068039127 0.14548115 4278190080
0.25618324 -0.067970149 0.14656971 4278190080
0.25330812 -0.065966621 0.14249699 4278190080
0.25495052 -0.068217948 0.14263172 4278190080
0.25044283 -0.066474542 0.13967483 4278190080
0.252134 -0.06840165 0.13978924 4278190080
0.25330815 -0.068332292 0.14085869 4278190080
0.24758035 -0.067490451 0.13688384 4278190080
0.24873677 -0.068587221 0.13694839 4278190080
0.25044242 -0.068509802 0.1381176 4278190080
0.23900355 -0.068773918 0.13434391 4278190080
0.23614866 -0.068736352 0.13506509 4278190080
0.24186091 -0.068761833 0.13442095 4278190080
0.24471787 -0.068758823 0.13435178 4278190080
0.24757805 -0.068691202 0.13532282 4278190080
0.23906323 -0.070348375 0.15140124 4278190080
0.23917136 -0.070575632 0.15141506 4278190080
0.2395311 -0.070397668 0.15426554 4278190080
0.25335279 -0.068788201 0.15412281 4278190080
0.25335303 -0.070440874 0.15299584 4278190080
0.25174746 -0.070368513 0.15422599 4278190080
0.25537428 -0.07053715 0.15136255 4278190080
0.23756053 -0.070756599 0.14856859 4278190080
0.23619193 -0.068429425 0.14842825 4278190080
0.23906328 -0.070585795 0.15125625 4278190080
0.25620237 -0.070586473 0.15053417 4278190080
0.23619106 -0.070892319 0.14643945 4278190080
0.25618213 -0.068949528 0.14553608 4278190080
0.25617748 -0.070800915 0.14278843 4278190080
0.25330916 -0.070154294 0.13989447 4278190080
0.2546955 -0.071247339 0.13995813 4278190080
0.25617662 -0.071095146 0.14234771 4278190080
0.25044307 -0.070302412 0.13704996 4278190080
0.25189131 -0.071431071 0.13711561 4278190080
0.25330764 -0.071337506 0.13856374 4278190080
0.2390044 -0.069400437 0.13416646 4278190080
0.23615479 -0.071607061 0.13493623 4278190080
0.23713282 -0.071643375 0.13431163 4278190080
0.24186182 -0.069519065 0.13416497 4278190080
0.24471875 -0.069405697 0.13414903 4278190080
