# .PCD v0.7 - Point Cloud Data file format
VERSION 0.7
FIELDS x y z rgb
SIZE 4 4 4 4
TYPE F F F U
COUNT 1 1 1 1
WIDTH 152
HEIGHT 1
VIEWPOINT 0 0 0 1 0 0 0
POINTS 152
DATA ascii
0.098795995 -0.17042112 0.039190564 4278190080
0.099946439 -0.17029424 0.041185513 4278190080
0.10047665 -0.17024 0.042036798 4278190080
0.094950311 -0.1707845 0.033499666 4278190080
0.098635487 -0.16756982 0.039013885 4278190080
0.097068101 -0.16772805 0.036531337 4278190080
0.096792676 -0.16775131 0.03616818 4278190080
0.10282408 -0.17359781 0.045100857 4278190080
0.10282408 -0.17359768 0.045100864 4278190080
0.10271347 -0.17290926 0.045058411 4278190080
0.10271348 -0.17290926 0.045058426 4278190080
0.09993884 -0.1674511 0.040871188 4278190080
0.09420345 -0.1708775 0.032033488 4278190080
0.10282285 -0.17289919 0.045215961 4278190080
0.093629427 -0.17381647 0.030829478 4278190080
0.094212756 -0.17668039 0.03078533 4278190080
0.094212383 -0.1762417 0.030978378 4278190080
0.10148512 -0.17308931 0.042210732 4278190080
0.094209574 -0.17375 0.031875581 4278190080
0.097075887 -0.17056747 0.036905695 4278190080
0.096664049 -0.17060331 0.036345795 4278190080
0.095178843 -0.17363566 0.033676129 4278190080
0.094308726 -0.17666653 0.031004477 4278190080
0.095537238 -0.17951533 0.031177696 4278190080
0.095537208 -0.17951532 0.031177694 4278190080
0.097082332 -0.1734336 0.036850262 4278190080
0.096864626 -0.17345452 0.036522347 4278190080
0.097097546 -0.18739751 0.031662658 4278190080
0.097096175 -0.18513346 0.032839466 4278190080
0.095807329 -0.18236636 0.031354018 4278190080
0.095789135 -0.17648588 0.033851348 4278190080
0.096537277 -0.18521631 0.031528853 4278190080
0.097083293 -0.17424865 0.036571018 4278190080
0.099095456 -0.1732721 0.039366793 4278190080
0.099976093 -0.19066197 0.035890099 4278190080
0.099950492 -0.17320767 0.040368743 4278190080
0.097391807 -0.18218546 0.034200553 4278190080
0.097771153 -0.18503624 0.034376524 4278190080
0.097088657 -0.18011969 0.034073126 4278190080
0.097635567 -0.17630437 0.036697049 4278190080
0.097092003 -0.18222263 0.033614576 4278190080
0.097087428 -0.17931968 0.034262858 4278190080
0.097087428 -0.17931969 0.034262832 4278190080
0.096967697 -0.17933479 0.03402473 4278190080
0.096967697 -0.17933477 0.03402473 4278190080
0.098637156 -0.18788588 0.034550916 4278190080
0.10062303 -0.19055574 0.037573367 4278190080
0.097085722 -0.17635997 0.035824742 4278190080
0.098355211 -0.17915437 0.036871918 4278190080
0.098355196 -0.17915435 0.036871918 4278190080
0.099957518 -0.1773205 0.039615687 4278190080
0.09935984 -0.18485534 0.03722306 4278190080
0.098787956 -0.18200502 0.037047714 4278190080
0.099974059 -0.18763968 0.037394173 4278190080
0.0999882 -0.18770555 0.037398223 4278190080
0.099974126 -0.18770757 0.037366077 4278190080
0.099956043 -0.17609128 0.040031385 4278190080
0.09960822 -0.17612256 0.039542332 4278190080
0.099965759 -0.181886 0.038915008 4278190080
0.10033716 -0.17897254 0.039717168 4278190080
0.10033715 -0.17897253 0.039717168 4278190080
0.099970564 -0.18478435 0.038340576 4278190080
0.10150041 -0.17594095 0.04238788 4278190080
0.099959694 -0.17901252 0.03908886 4278190080
0.099959694 -0.17901254 0.039088842 4278190080
0.10550538 -0.17557718 0.048078232 4278190080
0.10282741 -0.17580235 0.04456418 4278190080
0.10569634 -0.17556109 0.048329443 4278190080
0.10569636 -0.17556109 0.04832954 4278190080
0.10857163 -0.1781878 0.052009623 4278190080
0.10857163 -0.17818779 0.052009635 4278190080
0.10283209 -0.1787032 0.043949772 4278190080
0.10283209 -0.17870319 0.043949805 4278190080
0.10095265 -0.18467443 0.040069573 4278190080
0.10205197 -0.17879133 0.042563297 4278190080
0.10205194 -0.17879131 0.042563297 4278190080
0.10055889 -0.18182369 0.03989365 4278190080
0.10789288 -0.1782461 0.051099371 4278190080
0.10789286 -0.17824608 0.051099367 4278190080
0.10324084 -0.17575969 0.045233916 4278190080
0.10324078 -0.17575969 0.045233905 4278190080
0.10571597 -0.18714716 0.046150468 4278190080
0.10571595 -0.18714717 0.046150371 4278190080
0.10552163 -0.18716103 0.045935325 4278190080
0.10552157 -0.18716103 0.04593531 4278190080
0.10571749 -0.18804157 0.045989431 4278190080
0.10571749 -0.18804187 0.045989435 4278190080
0.1057175 -0.18804194 0.045989454 4278190080
0.1057175 -0.18804225 0.045989461 4278190080
0.10765693 -0.18697883 0.048780058 4278190080
0.10571061 -0.18425952 0.046552353 4278190080
0.1057106 -0.18425952 0.046552263 4278190080
0.10607969 -0.1900114 0.046110716 4278190080
0.10607965 -0.1900114 0.046110701 4278190080
0.10572089 -0.1900432 0.045613736 4278190080
0.10572088 -0.1900432 0.045613632 4278190080
0.1049731 -0.18431063 0.045759901 4278190080
0.10497304 -0.18431064 0.045759887 4278190080
0.10721223 -0.1841282 0.048604298 4278190080
0.10858535 -0.18689692 0.050060425 4278190080
0.1081434 -0.18982938 0.048955683 4278190080
0.10859041 -0.18979034 0.049565643 4278190080
0.10325839 -0.18734352 0.043090984 4278190080
0.10858013 -0.18400669 0.050503936 4278190080
0.10376846 -0.19019401 0.043266535 4278190080
0.10976147 -0.18679671 0.051624913 4278190080
0.10859401 -0.19202453 0.049090691 4278190080
0.10570582 -0.18136092 0.047130704 4278190080
0.10570581 -0.18136092 0.047130592 4278190080
0.10657717 -0.19286191 0.046286285 4278190080
0.10657721 -0.19286191 0.0462863 4278190080
0.10284709 -0.18738699 0.042408265 4278190080
0.10657881 -0.18127802 0.04842915 4278190080
0.10290131 -0.18449268 0.042914942 4278190080
0.10284179 -0.18449816 0.042829208 4278190080
0.10923044 -0.18394628 0.051449433 4278190080
0.10426847 -0.18146062 0.045584984 4278190080
0.10426841 -0.18146062 0.045584969 4278190080
0.10572573 -0.19294107 0.045047268 4278190080
0.10572571 -0.19294107 0.045047171 4278190080
0.10284101 -0.18407477 0.042889163 4278190080
0.1085951 -0.19269098 0.048954509 4278190080
0.10872457 -0.19267969 0.049130999 4278190080
0.11028249 -0.18964718 0.051800426 4278190080
0.10285171 -0.19028898 0.041775677 4278190080
0.10440846 -0.19304419 0.043441653 4278190080
0.10857673 -0.18141431 0.051294126 4278190080
0.10283668 -0.18160596 0.043304399 4278190080
0.10849784 -0.18109633 0.051274609 4278190080
0.10857626 -0.1810897 0.051378038 4278190080
0.10244154 -0.18164209 0.042739231 4278190080
0.11145894 -0.18955725 0.053199332 4278190080
0.10155016 -0.18752471 0.040244836 4278190080
0.11145403 -0.18666099 0.053739734 4278190080
0.11085708 -0.19249751 0.051975764 4278190080
0.10208575 -0.19037513 0.040420301 4278190080
0.10570311 -0.17857593 0.04826396 4278190080
0.10570309 -0.17857574 0.048263948 4278190080
0.10701916 -0.19571255 0.046462055 4278190080
0.10701922 -0.19571255 0.04646207 4278190080
0.10564605 -0.17842855 0.048254978 4278190080
0.10564605 -0.17842853 0.048254974 4278190080
0.10570294 -0.17842415 0.048323512 4278190080
0.10570296 -0.17842413 0.048323609 4278190080
0.10570294 -0.17842413 0.04832352 4278190080
0.10570296 -0.17842412 0.048323616 4278190080
0.10860004 -0.1955868 0.048421059 4278190080
0.10360233 -0.17861052 0.045409948 4278190080
0.10360228 -0.17861052 0.045409933 4278190080
0.10360233 -0.1786105 0.045409948 4278190080
0.10360227 -0.1786105 0.045409933 4278190080
0.10285664 -0.19318523 0.041235331 4278190080
