# .PCD v0.7 - Point Cloud Data file format
VERSION 0.7
FIELDS x y z rgb
SIZE 4 4 4 4
TYPE F F F U
COUNT 1 1 1 1
WIDTH 162
HEIGHT 1
VIEWPOINT 0 0 0 1 0 0 0
POINTS 162
DATA ascii
0.026838254 -0.1560331 0.054213621 4278190080
0.02863346 -0.15812564 0.054837856 4278190080
0.029205751 -0.15854442 0.054951966 4278190080
0.032033455 -0.15837254 0.060795717 4278190080
0.029244248 -0.15806404 0.057808839 4278190080
0.03528966 -0.156528 0.063555263 4278190080
0.035177968 -0.15708414 0.063218616 4278190080
0.035946857 -0.15341599 0.064013928 4278190080
0.036300384 -0.151732 0.064354867 4278190080
0.031873588 -0.15939842 0.058131509 4278190080
0.03473179 -0.15939689 0.061008893 4278190080
0.036611062 -0.15025671 0.064610846 4278190080
0.033064615 -0.152503 0.064782783 4278190080
0.033194926 -0.15254062 0.064758383 4278190080
0.033204854 -0.15249287 0.064772196 4278190080
0.033853572 -0.14941882 0.065245718 4278190080
0.032501981 -0.15589346 0.063595325 4278190080
0.029360555 -0.15723391 0.060542185 4278190080
0.032374393 -0.15653278 0.063172489 4278190080
0.024414562 -0.15344904 0.056653958 4278190080
0.024414569 -0.15344909 0.056653824 4278190080
0.024483364 -0.15351978 0.056497015 4278190080
0.024424978 -0.15342036 0.056465991 4278190080
0.024424978 -0.1534203 0.056465965 4278190080
0.026762825 -0.15606478 0.057251349 4278190080
0.03444102 -0.14662944 0.065727867 4278190080
0.034441039 -0.14662938 0.065727852 4278190080
0.02758868 -0.15694878 0.057511624 4278190080
0.034518629 -0.14625379 0.065859444 4278190080
0.028762311 -0.15529521 0.062932819 4278190080
0.029690549 -0.15541905 0.063167065 4278190080
0.029641729 -0.1556628 0.063013829 4278190080
0.026798997 -0.15559486 0.060111899 4278190080
0.027115077 -0.15589446 0.060198277 4278190080
0.031933147 -0.14444175 0.068130344 4278190080
0.027636822 -0.15115549 0.065177985 4278190080
0.027511857 -0.15177612 0.064816259 4278190080
0.024424843 -0.15280618 0.062302135 4278190080
0.024424851 -0.15280621 0.06230215 4278190080
0.022078436 -0.15050751 0.058612365 4278190080
0.031083249 -0.14856905 0.066561498 4278190080
0.031083271 -0.14856896 0.066561475 4278190080
0.031135846 -0.14831308 0.066663951 4278190080
0.021031093 -0.14906366 0.058171924 4278190080
0.023198009 -0.15229128 0.059165347 4278190080
0.031415496 -0.14843379 0.066498399 4278190080
0.031415623 -0.14843382 0.066498384 4278190080
0.027020056 -0.15429394 0.062678978 4278190080
0.030428369 -0.1517639 0.065214314 4278190080
0.03118331 -0.14466862 0.068245985 4278190080
0.030300871 -0.15239288 0.064885482 4278190080
0.019900545 -0.14714408 0.057573069 4278190080
0.024355635 -0.15342459 0.059494015 4278190080
0.024355642 -0.15342464 0.05949403 4278190080
0.029587101 -0.1415267 0.070275947 4278190080
0.031827129 -0.14497139 0.06779442 4278190080
0.024161 -0.15059254 0.064581782 4278190080
0.024827 -0.15067029 0.064781286 4278190080
0.024827015 -0.15067028 0.064781308 4278190080
0.021998189 -0.15056083 0.061657727 4278190080
0.024778843 -0.15090773 0.064658165 4278190080
0.024778858 -0.15090774 0.064658165 4278190080
0.022396218 -0.15116656 0.061844599 4278190080
0.028875191 -0.14503379 0.068488047 4278190080
0.028364439 -0.147569 0.067024425 4278190080
0.02818289 -0.14845276 0.066669039 4278190080
0.028182875 -0.1484528 0.066669047 4278190080
0.029093973 -0.14396958 0.068908691 4278190080
0.019786872 -0.14734763 0.060671497 4278190080
0.022238724 -0.14917237 0.064193867 4278190080
0.020110797 -0.14791349 0.060848504 4278190080
0.02557594 -0.14694014 0.067047887 4278190080
0.025575954 -0.14694014 0.067047887 4278190080
0.025370348 -0.1479418 0.066637188 4278190080
0.025370363 -0.14794181 0.066637188 4278190080
0.025370337 -0.14794187 0.066637188 4278190080
0.025370352 -0.14794187 0.066637188 4278190080
0.027043354 -0.13968511 0.070980765 4278190080
0.027043369 -0.13968511 0.070980772 4278190080
0.016718633 -0.13880223 0.066974938 4278190080
0.017553337 -0.141744 0.067938283 4278190080
0.018519204 -0.13886748 0.067924738 4278190080
0.017891735 -0.14177921 0.068051808 4278190080
0.017860707 -0.14193074 0.067986518 4278190080
0.015946366 -0.1373827 0.066528849 4278190080
0.017161809 -0.14261268 0.065232113 4278190080
0.017161824 -0.1426127 0.065232098 4278190080
0.015976388 -0.13959566 0.064260855 4278190080
0.015976403 -0.13959566 0.06426084 4278190080
0.017620049 -0.14331974 0.065450579 4278190080
0.017620053 -0.14331973 0.065450557 4278190080
0.015684716 -0.13886604 0.064026222 4278190080
0.01568472 -0.13886604 0.064026207 4278190080
0.019051235 -0.13627248 0.069014668 4278190080
0.020706125 -0.14223364 0.068538561 4278190080
0.020553652 -0.1429792 0.068208218 4278190080
0.016388778 -0.13508691 0.068744555 4278190080
0.021400426 -0.13887161 0.069728464 4278190080
0.016407963 -0.13499135 0.068802506 4278190080
0.016407974 -0.1349913 0.068802409 4278190080
0.021419186 -0.13878167 0.069752261 4278190080
0.021483831 -0.13887201 0.069779873 4278190080
0.015898127 -0.13491075 0.068709247 4278190080
0.015897572 -0.13491069 0.068709254 4278190080
0.019218192 -0.13547389 0.069206975 4278190080
0.019218203 -0.13547385 0.069206893 4278190080
0.01439859 -0.13554174 0.065978065 4278190080
0.014398657 -0.13554169 0.065978043 4278190080
0.014444806 -0.13650435 0.06328176 4278190080
0.014444761 -0.13650434 0.063281775 4278190080
0.014444832 -0.13650429 0.063281752 4278190080
0.014444847 -0.13650429 0.063281737 4278190080
0.017624162 -0.14358197 0.062779114 4278190080
0.016566373 -0.14067495 0.061576821 4278190080
0.017630287 -0.14358109 0.062516347 4278190080
0.017665356 -0.14367342 0.062546134 4278190080
0.019596089 -0.14589767 0.066231556 4278190080
0.019596193 -0.14589769 0.066231571 4278190080
0.022043142 -0.13585715 0.069901824 4278190080
0.022043154 -0.13585711 0.069901764 4278190080
0.01995955 -0.14594784 0.066318512 4278190080
0.019932568 -0.14607809 0.066276163 4278190080
0.019932561 -0.14607812 0.066276163 4278190080
0.01381781 -0.13349013 0.068329215 4278190080
0.015746169 -0.13889721 0.061010703 4278190080
0.02351319 -0.14273739 0.068880968 4278190080
0.02406653 -0.14003509 0.07004635 4278190080
0.023284897 -0.14385554 0.068369113 4278190080
0.024231758 -0.13921188 0.070549071 4278190080
0.019678351 -0.13314649 0.070937157 4278190080
0.016893506 -0.13251099 0.070861317 4278190080
0.015210934 -0.13762143 0.060601719 4278190080
0.015210964 -0.13762137 0.060601704 4278190080
0.014481977 -0.1327969 0.065035418 4278190080
0.014102206 -0.1324258 0.065846816 4278190080
0.014993429 -0.13385934 0.062349636 4278190080
0.014993444 -0.13385934 0.062349621 4278190080
0.019591775 -0.14684944 0.063534126 4278190080
0.022440728 -0.1338829 0.07104864 4278190080
0.019785501 -0.14704645 0.063591637 4278190080
0.022770356 -0.14642641 0.066734619 4278190080
0.01410665 -0.13188455 0.070788674 4278190080
0.015910067 -0.13834587 0.058991171 4278190080
0.015910085 -0.13834579 0.058991186 4278190080
0.024874367 -0.13619815 0.0707203 4278190080
0.024874378 -0.13619809 0.070720255 4278190080
0.02263787 -0.14707103 0.066478245 4278190080
0.022637859 -0.14707108 0.066478252 4278190080
0.012889173 -0.13150243 0.067696817 4278190080
0.017824385 -0.14301607 0.059290275 4278190080
0.017319672 -0.14178927 0.058896489 4278190080
0.019775342 -0.14718895 0.062688544 4278190080
0.018442675 -0.1447929 0.059866346 4278190080
0.015558667 -0.13493331 0.059665047 4278190080
0.026311588 -0.14329955 0.069052599 4278190080
0.026311602 -0.14329955 0.069052607 4278190080
0.016380344 -0.13882504 0.057930782 4278190080
0.016380385 -0.13882498 0.057930764 4278190080
0.026789341 -0.14094934 0.070220634 4278190080
0.026789356 -0.14094934 0.070220634 4278190080
0.026050229 -0.14457868 0.06847591 4278190080
0.026050244 -0.14457868 0.06847591 4278190080
