# .PCD v0.7 - Point Cloud Data file format
VERSION 0.7
FIELDS x y z rgb
SIZE 4 4 4 4
TYPE F F F U
COUNT 1 1 1 1
WIDTH 190
HEIGHT 1
VIEWPOINT 0 0 0 1 0 0 0
POINTS 190
DATA ascii
-0.0033294735 -0.16389021 -0.081876889 4278190080
-0.0061881919 -0.16392925 -0.082387343 4278190080
-0.011527274 -0.15583988 -0.090194926 4278190080
-0.01194958 -0.15473406 -0.090262339 4278190080
-0.00047099445 -0.16385591 -0.08144258 4278190080
-0.0090594636 -0.16122289 -0.084785536 4278190080
-0.0090558073 -0.16183662 -0.084104568 4278190080
-0.009107573 -0.14720695 -0.089572415 4278190080
-0.009107573 -0.14720692 -0.089572415 4278190080
-0.011952882 -0.15296774 -0.090025082 4278190080
-0.0062025404 -0.16030842 -0.084208369 4278190080
-0.0090755466 -0.15772709 -0.087222561 4278190080
-0.0061989566 -0.16114864 -0.083708331 4278190080
-0.0090723783 -0.15848485 -0.086791188 4278190080
-0.0079309009 -0.16118044 -0.084148824 4278190080
-0.0098401941 -0.15851043 -0.08717151 4278190080
-0.003352171 -0.15835212 -0.084890746 4278190080
-0.0062239743 -0.15552489 -0.087368235 4278190080
-0.0062363227 -0.15290716 -0.089285821 4278190080
-0.006223456 -0.15564618 -0.087295815 4278190080
-0.0064758351 -0.15565079 -0.08735963 4278190080
-0.0062443973 -0.15007336 -0.089750797 4278190080
-0.0033480343 -0.15927589 -0.084281363 4278190080
-0.0062500816 -0.14719233 -0.089454971 4278190080
-0.0062500816 -0.1471923 -0.089454956 4278190080
-0.0062114019 -0.1584013 -0.08556439 4278190080
-0.00048156589 -0.16107148 -0.08270213 4278190080
-0.0091009112 -0.15006866 -0.089557141 4278190080
-0.0090949479 -0.15294422 -0.089764528 4278190080
-0.0033401144 -0.16110715 -0.083158538 4278190080
-0.0062564611 -0.14432502 -0.089380369 4278190080
-0.009085034 -0.15574162 -0.088714063 4278190080
0.0023770193 -0.16103508 -0.082234032 4278190080
-0.00051756343 -0.15280294 -0.087843992 4278190080
-0.00051558408 -0.15321255 -0.087529592 4278190080
-0.00050503336 -0.1555486 -0.085961081 4278190080
0.0023606704 -0.15708865 -0.084434949 4278190080
-0.0033767642 -0.15285151 -0.088507921 4278190080
-0.0033700392 -0.1542653 -0.087455332 4278190080
-0.0033872584 -0.15006556 -0.089742959 4278190080
-0.0033928151 -0.14718196 -0.089406468 4278190080
-0.0033928149 -0.14718199 -0.089406483 4278190080
0.0023659035 -0.15826143 -0.083666824 4278190080
-0.00336416 -0.15559572 -0.086601466 4278190080
0.0052245064 -0.15822436 -0.083187886 4278190080
0.0052245213 -0.15822436 -0.083187871 4278190080
-0.00049340795 -0.15829128 -0.084351391 4278190080
-0.00049332104 -0.15831049 -0.084338419 4278190080
-0.00054928934 -0.15831134 -0.08434996 4278190080
-0.0033990776 -0.14431238 -0.089294739 4278190080
-0.00054737763 -0.14141865 -0.088913068 4278190080
0.0080844481 -0.15816112 -0.082288027 4278190080
0.0052146944 -0.15586525 -0.084519811 4278190080
0.00521468 -0.1558653 -0.084519804 4278190080
0.00076923298 -0.15278202 -0.087560318 4278190080
-0.00052896538 -0.15003492 -0.089367852 4278190080
0.0023540042 -0.15550326 -0.085349046 4278190080
0.0023384015 -0.15197307 -0.087615445 4278190080
0.0023415885 -0.15275532 -0.087195478 4278190080
0.0080721853 -0.15541014 -0.084085874 4278190080
0.0062691215 -0.15544355 -0.084549278 4278190080
-0.00054201751 -0.14430612 -0.089312047 4278190080
-0.00053567503 -0.14717413 -0.089398377 4278190080
-0.00053567498 -0.14717416 -0.089398392 4278190080
0.0023044599 -0.13852221 -0.08848764 4278190080
0.010933121 -0.15532741 -0.082872301 4278190080
0.0023043477 -0.13842992 -0.088456899 4278190080
0.0052130651 -0.15545742 -0.084729038 4278190080
0.0052130502 -0.15545742 -0.084729053 4278190080
0.00518033 -0.14712432 -0.088832438 4278190080
0.00518033 -0.14712435 -0.088832438 4278190080
0.0051803151 -0.14712434 -0.08883246 4278190080
0.0051803151 -0.14712436 -0.08883246 4278190080
0.0056243804 -0.14991885 -0.087753266 4278190080
0.005189986 -0.14992687 -0.087864295 4278190080
0.0051899711 -0.14992687 -0.08786431 4278190080
0.0051908381 -0.1501182 -0.087739542 4278190080
0.0051908232 -0.15011823 -0.087739535 4278190080
0.01092049 -0.15258372 -0.084787056 4278190080
0.011051069 -0.15258059 -0.084741987 4278190080
0.010920885 -0.15268101 -0.084735341 4278190080
0.0080609769 -0.15263833 -0.08554814 4278190080
0.0023157466 -0.14428596 -0.089105308 4278190080
0.01378266 -0.1524763 -0.083175972 4278190080
0.0023217881 -0.14715992 -0.089287356 4278190080
0.0023217883 -0.14715995 -0.089287363 4278190080
0.0052014547 -0.15269355 -0.086319074 4278190080
0.0052014398 -0.15269355 -0.086319089 4278190080
0.0043704971 -0.13851507 -0.088458002 4278190080
0.0023100977 -0.1414042 -0.08879821 4278190080
0.0080684358 -0.15453462 -0.084611326 4278190080
0.0023299982 -0.14999104 -0.088779345 4278190080
0.0080392119 -0.14708176 -0.088265188 4278190080
0.0080392119 -0.14708179 -0.088265188 4278190080
0.0080425432 -0.14797768 -0.087881371 4278190080
0.0051676217 -0.14138873 -0.088667296 4278190080
0.0051676068 -0.14138873 -0.088667296 4278190080
0.0080173444 -0.13421576 -0.08587376 4278190080
0.0051742191 -0.14425175 -0.088672474 4278190080
0.0051742042 -0.14425175 -0.088672489 4278190080
0.0080495337 -0.14987114 -0.087085247 4278190080
0.005161895 -0.13860762 -0.088454708 4278190080
0.0051618796 -0.13860758 -0.088454708 4278190080
0.0051617115 -0.13851213 -0.088443384 4278190080
0.0051616966 -0.13851213 -0.088443391 4278190080
0.010899578 -0.1470103 -0.087232769 4278190080
0.010899578 -0.14701033 -0.087232761 4278190080
0.016633969 -0.14959045 -0.082921058 4278190080
0.0086321589 -0.1442084 -0.088117421 4278190080
0.0080259452 -0.14135721 -0.088277727 4278190080
0.0080265151 -0.14160345 -0.088277414 4278190080
0.007946142 -0.14135833 -0.088292405 4278190080
0.013823551 -0.14972234 -0.08492817 4278190080
0.013770453 -0.14972419 -0.084955782 4278190080
0.013770695 -0.14978366 -0.084924199 4278190080
0.018185256 -0.1495349 -0.082090631 4278190080
0.0080326777 -0.14421755 -0.088239871 4278190080
0.0092126029 -0.14705868 -0.087942101 4278190080
0.0092125954 -0.14705871 -0.087942101 4278190080
0.01949637 -0.14947858 -0.08123827 4278190080
0.0080168573 -0.13555001 -0.086960278 4278190080
0.010909781 -0.149802 -0.086090311 4278190080
0.016600076 -0.13828683 -0.085288443 4278190080
0.019462474 -0.13817503 -0.08360666 4278190080
0.016608506 -0.14111356 -0.084709704 4278190080
0.015705138 -0.13831116 -0.085643083 4278190080
0.019471928 -0.14098153 -0.082702488 4278190080
0.019580482 -0.14097655 -0.082626767 4278190080
0.015374752 -0.14116363 -0.085464813 4278190080
0.019473646 -0.14156486 -0.08258988 4278190080
0.020580284 -0.1381225 -0.082807206 4278190080
0.016593367 -0.13542601 -0.085318081 4278190080
0.019456062 -0.13530837 -0.083542317 4278190080
0.013739553 -0.13836138 -0.086370356 4278190080
0.015177569 -0.13546073 -0.085818566 4278190080
0.020228224 -0.13527165 -0.082983263 4278190080
0.01374651 -0.14121729 -0.086261429 4278190080
0.016616326 -0.14395241 -0.084326036 4278190080
0.019047139 -0.14382951 -0.082447827 4278190080
0.019480463 -0.14380623 -0.08209113 4278190080
0.022326499 -0.13803124 -0.08141043 4278190080
0.013733182 -0.13549392 -0.086293191 4278190080
0.015320986 -0.14401546 -0.085287429 4278190080
0.013732113 -0.13443981 -0.08587753 4278190080
0.022337163 -0.14081383 -0.080121092 4278190080
0.016587868 -0.13254134 -0.084964097 4278190080
0.013753498 -0.14407258 -0.086142272 4278190080
0.022320133 -0.13516369 -0.081331559 4278190080
0.022774687 -0.14079186 -0.079785451 4278190080
0.019448703 -0.13246045 -0.08377967 4278190080
0.022342106 -0.14233759 -0.079688057 4278190080
0.020528184 -0.13241926 -0.083161436 4278190080
0.023689741 -0.13793799 -0.079965614 4278190080
0.013730085 -0.13256171 -0.085173897 4278190080
0.010879118 -0.1384345 -0.087429509 4278190080
0.022068338 -0.14364523 -0.079605952 4278190080
0.016625056 -0.14677323 -0.083652928 4278190080
0.016625056 -0.14677326 -0.083652914 4278190080
0.010885802 -0.14129581 -0.087407246 4278190080
0.010874465 -0.13553308 -0.086805552 4278190080
0.01890837 -0.14668149 -0.082270183 4278190080
0.018908363 -0.14668152 -0.082270183 4278190080
0.022346329 -0.14362606 -0.079309106 4278190080
0.01948783 -0.14665399 -0.081851549 4278190080
0.01948783 -0.14665402 -0.081851549 4278190080
0.010874275 -0.13414432 -0.085887052 4278190080
0.014682703 -0.14686862 -0.085108168 4278190080
0.014682688 -0.14686865 -0.085108168 4278190080
0.023946695 -0.13508573 -0.080143645 4278190080
0.022311572 -0.13233954 -0.081951633 4278190080
0.013761723 -0.14690335 -0.085629284 4278190080
0.013761723 -0.14690338 -0.085629277 4278190080
0.01089229 -0.14416099 -0.087447427 4278190080
0.010872748 -0.13257359 -0.085247271 4278190080
0.022350596 -0.1457146 -0.079478242 4278190080
0.016582772 -0.12964864 -0.084480785 4278190080
0.019441172 -0.12961587 -0.084071286 4278190080
0.022352247 -0.14650247 -0.079530448 4278190080
0.022352247 -0.14650249 -0.079530455 4278190080
0.013725119 -0.12966648 -0.08464992 4278190080
0.022485791 -0.14649589 -0.079430111 4278190080
0.022485798 -0.14649592 -0.079430111 4278190080
0.02518536 -0.13499551 -0.07874243 4278190080
0.025185375 -0.13499551 -0.078742325 4278190080
0.025196545 -0.13776778 -0.077287674 4278190080
0.02519656 -0.13776776 -0.07728751 4278190080
0.021128582 -0.12956616 -0.083340585 4278190080
0.0080197621 -0.138486 -0.088140488 4278190080
0.02535235 -0.13775693 -0.077119343 4278190080
0.025352417 -0.13775691 -0.077119321 4278190080
