# .PCD v0.7 - Point Cloud Data file format
VERSION 0.7
FIELDS x y z rgba label
SIZE 4 4 4 4 4
TYPE F F F U U
COUNT 1 1 1 1 1
WIDTH 604
HEIGHT 1
VIEWPOINT 0 0 0 1 0 0 0
POINTS 604
DATA ascii
0.10838019 0.028401386 -0.032653715 4278190080 30978
0.1091778 0.032011308 -0.034231085 4278190080 33283
0.11320972 0.02114623 -0.028845549 4278190080 32392
0.11179296 0.021710418 -0.029304087 4278190080 35083
0.11402439 0.020737424 -0.028496383 4278190080 33762
0.10785949 0.029051479 -0.033024222 4278190080 32831
0.11048207 0.034499507 -0.035183053 4278190080 27608
0.11855762 0.020352989 -0.027317081 4278190080 32709
0.1104371 0.022265311 -0.029758066 4278190080 31365
0.1093663 0.033379011 -0.034826096 4278190080 28687
0.10903173 0.033019766 -0.03471889 4278190080 28039
0.11638366 0.020011026 -0.027666133 4278190080 29165
0.12260507 0.021874875 -0.027058 4278190080 27490
0.11101812 0.02157202 -0.02937153 4278190080 30885
0.11789987 0.022802383 -0.028607396 4278190080 34123
0.12054221 0.022985499 -0.028073959 4278190080 35165
0.11168714 0.024916327 -0.030645708 4278190080 34488
0.11872596 0.022378933 -0.02822818 4278190080 35144
0.11798482 0.022249822 -0.028339202 4278190080 34109
0.11610112 0.022201078 -0.028735481 4278190080 28433
0.11651375 0.021993592 -0.028553167 4278190080 34039
0.12204713 0.02325145 -0.027830258 4278190080 35149
0.11536995 0.022071997 -0.028835397 4278190080 30155
0.11190946 0.023885567 -0.030158717 4278190080 33046
0.11884025 0.021826856 -0.027964337 4278190080 32088
0.11850887 0.021485586 -0.027885582 4278190080 31973
0.11162654 0.023560889 -0.030081637 4278190080 29674
0.11585383 0.021321245 -0.028389977 4278190080 35193
0.11058008 0.02442045 -0.030610753 4278190080 34760
0.11380832 0.021796651 -0.028999668 4278190080 34876
0.1092181 0.026243201 -0.03157001 4278190080 35119
0.1086292 0.026895026 -0.031931207 4278190080 33825
0.10969324 0.032682616 -0.034394588 4278190080 34329
0.11257873 0.027810324 -0.031720378 4278190080 29559
0.11229736 0.02747477 -0.031640217 4278190080 34690
0.11126447 0.030182449 -0.032983165 4278190080 30811
0.11413158 0.024874827 -0.03020278 4278190080 31941
0.11966132 0.023405874 -0.028453201 4278190080 29211
0.11148946 0.027289493 -0.031684324 4278190080 30969
0.12086452 0.02333333 -0.028149888 4278190080 31110
0.12012499 0.023200842 -0.028270032 4278190080 27819
0.11383457 0.024540583 -0.030123347 4278190080 30046
0.1115059 0.0356085 -0.035511177 4278190080 30396
0.12611729 0.025793141 -0.027843727 4278190080 29278
0.11003035 0.031718716 -0.033961087 4278190080 32423
0.11272889 0.029201182 -0.032315273 4278190080 29359
0.11334188 0.027987331 -0.031659357 4278190080 32441
0.12129806 0.025162579 -0.028846664 4278190080 30398
0.11929459 0.025061971 -0.029242493 4278190080 32662
0.12095214 0.024804559 -0.028763598 4278190080 32241
0.11696312 0.025167983 -0.029811524 4278190080 35039
0.11742566 0.02497817 -0.029642588 4278190080 31504
0.11300965 0.027638379 -0.031565849 4278190080 28567
0.1174347 0.027241588 -0.030510297 4278190080 34587
0.11612503 0.027794905 -0.031020688 4278190080 33162
0.11365615 0.030248037 -0.032583524 4278190080 33142
0.12294165 0.026368884 -0.028941333 4278190080 28788
0.11331197 0.029888941 -0.032484163 4278190080 34900
0.12758544 0.02883843 -0.028797613 4278190080 35022
0.11215312 0.032298598 -0.033797503 4278190080 31576
0.11641367 0.026739083 -0.030527441 4278190080 30296
0.11280641 0.030034717 -0.032614935 4278190080 34629
0.11222112 0.03582637 -0.0354659 4278190080 30985
0.11186422 0.032488491 -0.033983048 4278190080 33530
0.12805718 0.028630635 -0.028591355 4278190080 33491
0.12153364 0.025500951 -0.0289039 4278190080 31749
0.12005465 0.027523283 -0.030021373 4278190080 34873
0.11759183 0.028124897 -0.030840101 4278190080 30432
0.11530106 0.029551961 -0.031929303 4278190080 30795
0.12600976 0.028502602 -0.029055377 4278190080 32978
0.11601324 0.028328115 -0.031274904 4278190080 31107
0.11309057 0.036634784 -0.035741482 4278190080 32992
0.11312334 0.031474765 -0.033260506 4278190080 34857
0.12269551 0.026910448 -0.029184349 4278190080 31209
0.11845595 0.03487568 -0.033680819 4278190080 30349
0.11795167 0.035585728 -0.034114074 4278190080 29681
0.12181322 0.031714205 -0.031363063 4278190080 30751
0.11820761 0.03338391 -0.033030901 4278190080 28834
0.11756214 0.036322009 -0.034575745 4278190080 33644
0.11720989 0.037063822 -0.035044622 4278190080 33421
0.11747882 0.033188168 -0.033113085 4278190080 31320
0.11959673 0.03116693 -0.031665396 4278190080 35125
0.1228468 0.030786425 -0.030728333 4278190080 34461
0.12446264 0.031169575 -0.030526424 4278190080 33064
0.11646759 0.036839399 -0.035106067 4278190080 28876
0.1234096 0.030622529 -0.030567382 4278190080 35003
0.11725403 0.032281294 -0.032761786 4278190080 27718
0.11971939 0.030620882 -0.031404659 4278190080 33914
0.12416109 0.030799061 -0.03045141 4278190080 29934
0.11689209 0.032467876 -0.032945782 4278190080 33353
0.11636746 0.033169676 -0.033366896 4278190080 35020
0.11937515 0.030250344 -0.03131355 4278190080 34754
0.11671846 0.038599063 -0.03603708 4278190080 33327
0.11565913 0.036595184 -0.035144042 4278190080 28804
0.11775284 0.03099506 -0.032037545 4278190080 30367
0.11908041 0.029893072 -0.031235257 4278190080 31031
0.11660395 0.031550296 -0.032578472 4278190080 32600
0.11952679 0.029711202 -0.03106048 4278190080 33503
0.11494585 0.034720719 -0.034363721 4278190080 34401
0.12286748 0.029312214 -0.030130323 4278190080 34108
0.11700564 0.040097557 -0.036699038 4278190080 35137
0.11593849 0.038909804 -0.036361977 4278190080 32122
0.1262854 0.030385913 -0.029740056 4278190080 32581
0.12012065 0.028983116 -0.030627197 4278190080 30754
0.12486512 0.029461382 -0.029707476 4278190080 28736
0.11630461 0.030634148 -0.03220953 4278190080 33312
0.11499422 0.032244291 -0.033251308 4278190080 34648
0.11807189 0.029369637 -0.031257015 4278190080 27711
0.11720663 0.029730763 -0.031600274 4278190080 32599
0.12224234 0.028582929 -0.029975083 4278190080 31512
0.11433448 0.037294328 -0.035856564 4278190080 34140
0.12642862 0.029809702 -0.029464025 4278190080 35155
0.11865302 0.028649217 -0.030830478 4278190080 27610
0.11736193 0.029202951 -0.031354602 4278190080 29458
0.11904781 0.028452585 -0.030642539 4278190080 27683
0.11555453 0.030447332 -0.032283094 4278190080 28265
0.11627809 0.040696245 -0.037320349 4278190080 34533
0.1144062 0.038417161 -0.036438294 4278190080 29138
0.11674497 0.041133739 -0.037470613 4278190080 33847
0.11359572 0.033239115 -0.033957068 4278190080 34878
0.1145123 0.039001834 -0.036751725 4278190080 34330
0.11364499 0.032706048 -0.033693753 4278190080 28377
0.12632641 0.028874252 -0.029129419 4278190080 35007
0.11699025 0.04177893 -0.037834607 4278190080 35544
0.11433703 0.030969346 -0.032780159 4278190080 33844
0.12468002 0.034222595 -0.031803101 4278190080 30977
0.12139749 0.036285635 -0.03363277 4278190080 31163
0.12433199 0.033832338 -0.031713407 4278190080 30202
0.12732659 0.033688281 -0.030924678 4278190080 30407
0.12194349 0.034974184 -0.032889474 4278190080 32665
0.12150642 0.035147142 -0.033068206 4278190080 31416
0.12357739 0.033636823 -0.031821601 4278190080 28310
0.13134195 0.034699753 -0.030301739 4278190080 28176
0.12529172 0.032874569 -0.031039732 4278190080 32589
0.11992216 0.035864267 -0.033807497 4278190080 32147
0.11998285 0.035304137 -0.033530954 4278190080 31771
0.1190845 0.036771234 -0.034443874 4278190080 33915
0.12996049 0.033100028 -0.029978877 4278190080 32835
0.13295788 0.035106983 -0.030027488 4278190080 31334
0.12087971 0.033810649 -0.032600053 4278190080 33257
0.12714393 0.032111961 -0.030256735 4278190080 29021
0.12045664 0.043838717 -0.038078792 4278190080 31115
0.11869089 0.036369592 -0.034329358 4278190080 34814
0.12759912 0.031913888 -0.030053509 4278190080 28314
0.11904395 0.042484839 -0.037630737 4278190080 31519
0.11781509 0.038663186 -0.035801727 4278190080 34742
0.12892492 0.031917967 -0.029736968 4278190080 32483
0.13095225 0.032709468 -0.029567955 4278190080 34028
0.11970839 0.033786949 -0.032867637 4278190080 34300
0.1221636 0.032094698 -0.031454124 4278190080 29828
0.12348971 0.031533509 -0.030891083 4278190080 32220
0.12500438 0.042428818 -0.035862006 4278190080 28456
0.12634593 0.039219428 -0.033778429 4278190080 34951
0.12596771 0.038803641 -0.033676427 4278190080 27682
0.12461244 0.044997144 -0.037573408 4278190080 28888
0.12323006 0.042738125 -0.036554001 4278190080 33592
0.12711063 0.037000198 -0.03242987 4278190080 29749
0.12760648 0.036830917 -0.032244705 4278190080 34476
0.13086832 0.037101414 -0.031474788 4278190080 32784
0.12597057 0.036985751 -0.032752723 4278190080 35439
0.13253658 0.03755394 -0.031230871 4278190080 33468
0.13018489 0.036289036 -0.031308282 4278190080 34105
0.12937666 0.036073714 -0.031428751 4278190080 30944
0.12519032 0.036766615 -0.032854471 4278190080 28740
0.12211157 0.042658314 -0.036817003 4278190080 32472
0.12407392 0.037348576 -0.033469409 4278190080 30962
0.13148409 0.036318537 -0.030979667 4278190080 29235
0.12225304 0.044175103 -0.037754167 4278190080 34967
0.12221504 0.038871285 -0.034757417 4278190080 33442
0.12416903 0.036180653 -0.032887291 4278190080 34394
0.12617372 0.035220582 -0.031878907 4278190080 32328
0.12248053 0.045726076 -0.038720328 4278190080 31034
0.12754753 0.034665182 -0.031291764 4278190080 34366
0.12422756 0.035598975 -0.03259873 4278190080 34728
0.12539874 0.03501416 -0.031988222 4278190080 33521
0.13169177 0.035105001 -0.030383497 4278190080 30553
0.13509002 0.036945987 -0.030185042 4278190080 34657
0.12182575 0.045489699 -0.03880924 4278190080 31314
0.1288448 0.03965437 -0.033192635 4278190080 33108
0.12602456 0.042459365 -0.035541192 4278190080 28925
0.13277943 0.038579062 -0.031614427 4278190080 34833
0.1257022 0.043262061 -0.036064211 4278190080 31633
0.1281427 0.039446674 -0.033323225 4278190080 34474
0.1367965 0.039370768 -0.030574594 4278190080 35131
0.1305773 0.038280323 -0.032044712 4278190080 33772
0.13579367 0.03876609 -0.030679123 4278190080 34696
0.13809116 0.039729651 -0.030193198 4278190080 34794
0.12814356 0.038830172 -0.03300995 4278190080 35174
0.13556735 0.03837724 -0.030626442 4278190080 29324
0.13301958 0.042170718 -0.032979511 4278190080 29467
0.12935093 0.044473168 -0.03553883 4278190080 27729
0.13015783 0.043175716 -0.03449076 4278190080 29927
0.12869786 0.044875562 -0.035986852 4278190080 32860
0.13206267 0.040924285 -0.032738648 4278190080 28411
0.12801091 0.048645511 -0.038604669 4278190080 28912
0.13698477 0.041403223 -0.031291135 4278190080 28745
0.13417315 0.04058411 -0.031953052 4278190080 31155
0.12774824 0.048241023 -0.038524084 4278190080 34599
0.12751244 0.044169754 -0.035964631 4278190080 29813
0.13009563 0.041277379 -0.033519585 4278190080 28820
0.1271615 0.045275282 -0.036795713 4278190080 29630
0.12804137 0.050198581 -0.03924251 4278190080 31999
0.13941091 0.042111736 -0.030491604 4278190080 30471
0.13017921 0.040676028 -0.03322234 4278190080 30685
0.14013113 0.042660296 -0.030310957 4278190080 32060
0.12744449 0.042920452 -0.035322115 4278190080 27883
0.12808573 0.041895952 -0.034562033 4278190080 34721
0.13683182 0.040369805 -0.030919531 4278190080 30271
0.13751943 0.040565241 -0.030740794 4278190080 32734
0.12679423 0.043319348 -0.03576006 4278190080 31754
0.12660918 0.048129253 -0.038797155 4278190080 29968
0.14051993 0.042436156 -0.030052269 4278190080 29466
0.12790766 0.053236086 -0.039532632 4278190080 32728
0.12908797 0.04065866 -0.033572491 4278190080 32932
0.12753986 0.051545393 -0.039716687 4278190080 28596
0.13879627 0.04092858 -0.030352116 4278190080 34632
0.12600385 0.045482576 -0.03738058 4278190080 27561
0.12752178 0.052462656 -0.039717756 4278190080 31653
0.13791476 0.040345423 -0.030492708 4278190080 34875
0.12607546 0.043689288 -0.03617223 4278190080 30408
0.14084078 0.042190738 -0.029777527 4278190080 33650
0.12842205 0.040456705 -0.03371131 4278190080 28383
0.14251207 0.044053402 -0.0291031 4278190080 32339
0.13123745 0.039097965 -0.032208983 4278190080 35350
0.13139781 0.04736599 -0.036427312 4278190080 28600
0.13113353 0.048534729 -0.037312973 4278190080 33930
0.13116977 0.047601659 -0.036683522 4278190080 30701
0.133947 0.044711672 -0.033868797 4278190080 32035
0.13266429 0.044935998 -0.034513395 4278190080 32756
0.13057469 0.049590826 -0.038109716 4278190080 33777
0.13359848 0.044277612 -0.033779517 4278190080 28257
0.13669452 0.043624334 -0.03223164 4278190080 34538
0.13228516 0.04449353 -0.034413725 4278190080 31933
0.12979379 0.050866548 -0.038834773 4278190080 30709
0.13353935 0.043616001 -0.033437993 4278190080 30992
0.13651729 0.043240443 -0.032188103 4278190080 32571
0.12927455 0.05316712 -0.039010774 4278190080 31206
0.12901461 0.053687524 -0.038937621 4278190080 28037
0.13191156 0.044054665 -0.034315486 4278190080 30298
0.12997448 0.04624347 -0.036346368 4278190080 32079
0.13101362 0.044710472 -0.035039775 4278190080 31752
0.12935977 0.049142562 -0.038383063 4278190080 30140
0.13285123 0.043398906 -0.033588465 4278190080 28819
0.14204329 0.045282986 -0.029704204 4278190080 32247
0.12862253 0.05446253 -0.038827207 4278190080 34889
0.12908705 0.052154679 -0.039259471 4278190080 32507
0.12909684 0.051846568 -0.039260179 4278190080 34036
0.12946899 0.046691995 -0.03683573 4278190080 33637
0.14240089 0.045394633 -0.029434096 4278190080 27813
0.14117888 0.044331841 -0.030202992 4278190080 28869
0.12985471 0.045577571 -0.035995539 4278190080 32374
0.12852465 0.053799026 -0.039103545 4278190080 30406
0.13093951 0.04405598 -0.03469982 4278190080 31475
0.12887311 0.050825939 -0.039186157 4278190080 31159
0.13120249 0.043825958 -0.034449879 4278190080 28263
0.14346057 0.046419136 -0.028615598 4278190080 35096
0.1279164 0.05820442 -0.037102103 4278190080 28860
0.13944185 0.043129027 -0.030841898 4278190080 32234
0.12867498 0.04982049 -0.038809493 4278190080 34273
0.12925924 0.045997299 -0.03646047 4278190080 30941
0.1279029 0.059130646 -0.036487699 4278190080 29300
0.13004547 0.044703893 -0.035413668 4278190080 31198
0.13323213 0.042556863 -0.033033784 4278190080 29336
0.13534184 0.042228516 -0.032236744 4278190080 33207
0.14181899 0.044186328 -0.029650839 4278190080 33235
0.12859684 0.046696454 -0.037213009 4278190080 30738
0.12826757 0.05059376 -0.039313339 4278190080 29616
0.12777309 0.054728113 -0.039194338 4278190080 34361
0.14465845 0.047497593 -0.02780783 4278190080 32420
0.1346323 0.049470153 -0.036021218 4278190080 35008
0.13565473 0.048529871 -0.034972921 4278190080 35034
0.13323185 0.051538903 -0.037276521 4278190080 35111
0.13125926 0.055559628 -0.037081383 4278190080 29775
0.13327092 0.050909378 -0.037282746 4278190080 29712
0.13114791 0.055194717 -0.037364438 4278190080 32184
0.13566713 0.047880944 -0.034644071 4278190080 29233
0.13698493 0.047344107 -0.033647116 4278190080 31338
0.13594693 0.047649663 -0.034384266 4278190080 34210
0.13315135 0.050543685 -0.037247386 4278190080 34253
0.13107815 0.054530412 -0.03765652 4278190080 34137
0.13441409 0.048421174 -0.035632301 4278190080 33553
0.13040218 0.056152225 -0.037163336 4278190080 31443
0.1351189 0.047692824 -0.034831859 4278190080 29820
0.13000193 0.059139825 -0.035504576 4278190080 29360
0.12987065 0.058765665 -0.035780285 4278190080 28476
0.13105655 0.053885892 -0.037962042 4278190080 32020
0.13089715 0.054138988 -0.037918631 4278190080 30837
0.13161589 0.052517507 -0.038110938 4278190080 29206
0.12969494 0.05742757 -0.036662295 4278190080 32569
0.12960327 0.058017205 -0.036328442 4278190080 28524
0.13455303 0.047498751 -0.035012458 4278190080 30516
0.13075301 0.053763077 -0.038190525 4278190080 33154
0.13798989 0.046019908 -0.032546967 4278190080 31075
0.13403034 0.047319327 -0.035201512 4278190080 30498
0.14069159 0.046220582 -0.030793753 4278190080 34353
0.13061321 0.053073976 -0.038460717 4278190080 29344
0.13684268 0.045648541 -0.032940518 4278190080 34032
0.13166131 0.049992345 -0.037788168 4278190080 35276
0.13566993 0.045922302 -0.033648759 4278190080 29415
0.13138197 0.05052283 -0.038030352 4278190080 32017
0.13597399 0.045694757 -0.033392757 4278190080 34418
0.13942392 0.045477197 -0.031527523 4278190080 33565
0.13000903 0.053463183 -0.03860284 4278190080 35485
0.13007557 0.053175271 -0.038620144 4278190080 33033
0.13448779 0.046181709 -0.03433748 4278190080 28667
0.13759814 0.04522977 -0.032451138 4278190080 28095
0.12895127 0.06117294 -0.034927607 4278190080 33221
0.12902972 0.061523356 -0.034639463 4278190080 29290
0.12931134 0.054748837 -0.038409062 4278190080 34398
0.12861578 0.060392052 -0.035454102 4278190080 32416
0.13013564 0.0636224 -0.033059567 4278190080 31227
0.12936062 0.06262181 -0.033797365 4278190080 33057
0.13035645 0.064044811 -0.032802552 4278190080 29868
0.13421904 0.045768991 -0.034267433 4278190080 31681
0.13965148 0.044875789 -0.031236466 4278190080 35302
0.12799194 0.059482269 -0.036206212 4278190080 28828
0.14065699 0.058104213 -0.031548671 4278190080 28393
0.14136302 0.058049798 -0.031019852 4278190080 27530
0.14165862 0.058169831 -0.030741785 4278190080 27855
0.14136982 0.05907784 -0.031028492 4278190080 31459
0.14200367 0.058309518 -0.030472735 4278190080 30725
0.14202745 0.058662344 -0.030480163 4278190080 30608
0.14038731 0.059693467 -0.031500924 4278190080 34791
0.1423658 0.058456004 -0.030205578 4278190080 32116
0.13952762 0.059334334 -0.0319844 4278190080 30390
0.14022964 0.059967585 -0.031468421 4278190080 31638
0.14160129 0.059858803 -0.030741492 4278190080 34806
0.14009865 0.060252056 -0.031441815 4278190080 32386
0.14272128 0.057909735 -0.029930474 4278190080 29677
0.13928156 0.057544295 -0.032589387 4278190080 33872
0.14270538 0.057558484 -0.029924786 4278190080 31526
0.1415572 0.060183015 -0.030734453 4278190080 30654
0.13969682 0.056361966 -0.032338537 4278190080 28903
0.14132115 0.055641644 -0.030994067 4278190080 35389
0.14104941 0.060653359 -0.030971121 4278190080 29911
0.14042804 0.05563378 -0.031820383 4278190080 33377
0.1400066 0.05580841 -0.032066558 4278190080 28298
0.13888165 0.057717688 -0.032834683 4278190080 28296
0.14305978 0.058391098 -0.029657397 4278190080 30357
0.14306131 0.057699934 -0.029652886 4278190080 33457
0.13888682 0.057384025 -0.032833528 4278190080 31088
0.14164579 0.055082835 -0.030717492 4278190080 33122
0.14009009 0.055163268 -0.032080665 4278190080 29446
0.13798745 0.059026197 -0.032637831 4278190080 29027
0.13853523 0.056906112 -0.033083558 4278190080 27705
0.14037842 0.054936115 -0.031804539 4278190080 31327
0.1379509 0.058341511 -0.032957599 4278190080 27666
0.14341219 0.056799229 -0.02937099 4278190080 29799
0.14103898 0.054508936 -0.031266391 4278190080 33660
0.1404081 0.054607913 -0.03180879 4278190080 30671
0.13777763 0.057934985 -0.033246964 4278190080 31745
0.13799916 0.060704324 -0.031986061 4278190080 30536
0.13818228 0.056763425 -0.03333392 4278190080 30128
0.1376633 0.060225789 -0.032239255 4278190080 34305
0.13759653 0.058193952 -0.033206183 4278190080 32249
0.14011268 0.05449447 -0.032081015 4278190080 35290
0.14344953 0.055773083 -0.029371269 4278190080 32889
0.14102028 0.062007725 -0.030633887 4278190080 30646
0.13799316 0.061371598 -0.031656258 4278190080 34294
0.14306152 0.054933056 -0.029633636 4278190080 31156
0.14016505 0.062318314 -0.030793969 4278190080 30189
0.14418806 0.057101507 -0.028831141 4278190080 31617
0.1437948 0.055905368 -0.029093688 4278190080 30737
0.1369243 0.059576504 -0.032727249 4278190080 29959
0.14410384 0.059508204 -0.028831536 4278190080 32055
0.13822731 0.061809331 -0.031377882 4278190080 28534
0.1393806 0.062314507 -0.030962989 4278190080 30914
0.13799471 0.056019269 -0.033617638 4278190080 32094
0.14132355 0.06248137 -0.03035998 4278190080 33323
0.1445663 0.057598479 -0.028558934 4278190080 30519
0.13918912 0.054140203 -0.032880381 4278190080 30384
0.14118318 0.062762566 -0.030332658 4278190080 31063
0.14345287 0.054387107 -0.029362278 4278190080 28857
0.13774705 0.062267222 -0.031275079 4278190080 32657
0.13622016 0.05894547 -0.033216465 4278190080 34212
0.14492917 0.058792207 -0.028286818 4278190080 34952
0.13675563 0.05685056 -0.03398915 4278190080 32852
0.13684107 0.05655412 -0.03400778 4278190080 28973
0.14491352 0.05668379 -0.028269207 4278190080 32549
0.13788179 0.054972589 -0.033916228 4278190080 29982
0.13600846 0.05852548 -0.03349147 4278190080 30679
0.14309858 0.053563036 -0.029631548 4278190080 30341
0.13945605 0.053231668 -0.032598879 4278190080 34626
0.13606256 0.05788767 -0.033828381 4278190080 33921
0.13789442 0.054644153 -0.033916947 4278190080 31536
0.13647296 0.06203353 -0.031651102 4278190080 28663
0.13790496 0.054314855 -0.033917155 4278190080 32792
0.13752106 0.054831233 -0.034160547 4278190080 33751
0.13963623 0.063781127 -0.03035417 4278190080 33889
0.14075178 0.052357867 -0.031529102 4278190080 33290
0.14199965 0.052472148 -0.030431112 4278190080 29926
0.13876416 0.063727476 -0.030504767 4278190080 29655
0.13577603 0.061392993 -0.032144904 4278190080 34521
0.14335813 0.063017786 -0.029403564 4278190080 35242
0.13940321 0.064014912 -0.030306624 4278190080 28268
0.1352589 0.060177747 -0.032996669 4278190080 27659
0.13520333 0.058841385 -0.03362672 4278190080 33435
0.13793539 0.053659629 -0.033919841 4278190080 28774
0.14562964 0.056607697 -0.027700884 4278190080 34635
0.1426449 0.052362233 -0.029876204 4278190080 29859
0.13586968 0.056489542 -0.034427594 4278190080 33755
0.13877383 0.052640133 -0.03310911 4278190080 35348
0.13509928 0.058141887 -0.033922624 4278190080 31759
0.13984232 0.052024305 -0.032340907 4278190080 33266
0.14105447 0.051786996 -0.031250678 4278190080 28703
0.14596231 0.058147032 -0.027420431 4278190080 33566
0.13670278 0.054841701 -0.034622036 4278190080 33916
0.14563383 0.060482796 -0.027728546 4278190080 32702
0.13763741 0.053545311 -0.034179691 4278190080 35374
0.14258318 0.064063795 -0.029600969 4278190080 28327
0.14565887 0.055562146 -0.027699018 4278190080 34063
0.1391654 0.052113064 -0.032860663 4278190080 27799
0.14407223 0.05287743 -0.028779266 4278190080 27908
0.13455327 0.059543349 -0.033474013 4278190080 32446
0.14099623 0.051425613 -0.031235578 4278190080 32496
0.13759026 0.053195078 -0.034165785 4278190080 34455
0.14603496 0.059940603 -0.027446089 4278190080 34640
0.13507484 0.056820683 -0.034559317 4278190080 28643
0.14627115 0.05826873 -0.027124248 4278190080 30793
0.1356599 0.062987119 -0.031474385 4278190080 28227
0.13726857 0.053404428 -0.034420542 4278190080 32674
0.14632471 0.05758173 -0.027129102 4278190080 31568
0.14223588 0.064600259 -0.029534774 4278190080 31788
0.14153105 0.051276427 -0.030666664 4278190080 32201
0.14329457 0.051904384 -0.029313488 4278190080 30741
0.14565955 0.061549809 -0.027740693 4278190080 31934
0.13602307 0.063482158 -0.031231415 4278190080 33871
0.13459677 0.061849803 -0.032201283 4278190080 29136
0.14556773 0.05412082 -0.027672213 4278190080 34068
0.13659334 0.053806383 -0.034917314 4278190080 35392
0.13695408 0.053283945 -0.034673199 4278190080 29462
0.14147235 0.050914004 -0.030651741 4278190080 31683
0.14511158 0.063074499 -0.028351096 4278190080 28855
0.14275762 0.064833 -0.029296735 4278190080 34548
0.14667392 0.057717301 -0.026838539 4278190080 30281
0.14363009 0.051676814 -0.029031873 4278190080 27569
0.13613756 0.064194903 -0.030933307 4278190080 30108
0.13393556 0.060900047 -0.033010498 4278190080 31632
0.13700335 0.052971303 -0.034683175 4278190080 29144
0.13378848 0.059859954 -0.033613678 4278190080 34856
0.14254622 0.065084495 -0.029256428 4278190080 30782
0.14212161 0.050800446 -0.030101772 4278190080 33065
0.13910355 0.051082127 -0.03283916 4278190080 35090
0.14284363 0.051053923 -0.029562712 4278190080 31248
0.13936548 0.050840396 -0.032561425 4278190080 27652
0.13491675 0.063302197 -0.031634644 4278190080 28612
0.14676012 0.060234237 -0.02687124 4278190080 27552
0.14550391 0.063242637 -0.028075129 4278190080 31700
0.13880377 0.050973658 -0.033104356 4278190080 34720
0.14083704 0.050348483 -0.031193666 4278190080 32841
0.14702307 0.057497352 -0.026543809 4278190080 32049
0.14178067 0.050337937 -0.030370515 4278190080 28489
0.14699903 0.056421936 -0.026532162 4278190080 33995
0.14055534 0.065898605 -0.0292054 4278190080 31909
0.1399149 0.065942578 -0.029414581 4278190080 32225
0.14448833 0.064556055 -0.028592363 4278190080 30048
0.14695595 0.056050651 -0.02652207 4278190080 34114
0.13325071 0.059946537 -0.033804171 4278190080 34141
0.13374546 0.062437989 -0.032330036 4278190080 28640
0.13414964 0.056112774 -0.035294458 4278190080 34133
0.14277141 0.050338864 -0.029543182 4278190080 29948
0.14211722 0.050111905 -0.03009606 4278190080 32191
0.14586507 0.063397646 -0.027791416 4278190080 34487
0.14540926 0.052306283 -0.027630391 4278190080 30869
0.13455012 0.063785888 -0.031554449 4278190080 28247
0.14580311 0.052797887 -0.027354367 4278190080 30107
0.14656097 0.054130673 -0.026793694 4278190080 33234
0.13321191 0.061222732 -0.033160549 4278190080 28713
0.14045294 0.066191606 -0.029186822 4278190080 28032
0.14105868 0.066130541 -0.028967757 4278190080 32033
0.13326256 0.058011465 -0.034758274 4278190080 33857
0.1371612 0.051704131 -0.034713272 4278190080 33926
0.14712664 0.061094224 -0.026586797 4278190080 33518
0.14625311 0.063210316 -0.027508467 4278190080 31317
0.13484882 0.054437287 -0.035787731 4278190080 30642
0.14099912 0.066444382 -0.028958095 4278190080 32104
0.13783115 0.050622422 -0.033873405 4278190080 27881
0.13894373 0.066503227 -0.029556066 4278190080 28094
0.13810225 0.050386965 -0.033603523 4278190080 30590
0.14536105 0.051586758 -0.02761651 4278190080 28305
0.14687154 0.053888883 -0.026492359 4278190080 28260
0.13270678 0.058739707 -0.034621909 4278190080 31306
0.13960494 0.049577337 -0.032270182 4278190080 33465
0.14637345 0.063614748 -0.027533175 4278190080 28165
0.13862166 0.049904238 -0.03305443 4278190080 33121
0.1477634 0.059569258 -0.02597376 4278190080 33666
0.13402933 0.055087358 -0.035903145 4278190080 31472
0.14768037 0.055965826 -0.02593475 4278190080 35518
0.141693 0.049280554 -0.030344836 4278190080 27723
0.14694294 0.062794313 -0.026921356 4278190080 27698
0.14689027 0.053540368 -0.026493222 4278190080 31368
0.14781168 0.059945524 -0.025984557 4278190080 35480
0.14754938 0.061267037 -0.026305495 4278190080 33308
0.14374791 0.049982816 -0.02869617 4278190080 27773
0.13606893 0.051957898 -0.035430007 4278190080 33114
0.13343394 0.055818591 -0.035752408 4278190080 34127
0.13644862 0.051440507 -0.035193734 4278190080 32779
0.13956958 0.049227949 -0.032259755 4278190080 33336
0.14781794 0.06066291 -0.025990579 4278190080 35509
0.1426499 0.049263243 -0.029511213 4278190080 35301
0.13569559 0.052146047 -0.035663746 4278190080 31835
0.14099425 0.067124084 -0.028961863 4278190080 31911
0.13411666 0.064886056 -0.031139586 4278190080 32028
0.14645553 0.06435772 -0.027553264 4278190080 35027
0.13781601 0.066975825 -0.029659567 4278190080 33959
0.13381858 0.05467784 -0.036167972 4278190080 29618
0.13921641 0.067306027 -0.029281745 4278190080 33805
0.13198356 0.059065457 -0.034758586 4278190080 30245
0.14639699 0.064686805 -0.027544893 4278190080 31669
0.13710819 0.066970371 -0.029842893 4278190080 34200
0.143335 0.049149264 -0.028956277 4278190080 35222
0.13767207 0.049568072 -0.033827774 4278190080 30772
0.1398011 0.048633184 -0.031970363 4278190080 29169
0.14721255 0.052944448 -0.026189905 4278190080 31241
0.14484932 0.050008677 -0.027860926 4278190080 29060
0.14161232 0.067412809 -0.028744871 4278190080 30230
0.14641708 0.05160151 -0.026750689 4278190080 31484
0.13313156 0.06441813 -0.031556822 4278190080 30945
0.13581726 0.066680655 -0.030224228 4278190080 27984
0.13349137 0.054546323 -0.036402676 4278190080 29831
0.13690503 0.049956873 -0.034637567 4278190080 32397
0.13190879 0.062555507 -0.032853905 4278190080 30435
0.1482991 0.055480536 -0.025320191 4278190080 32038
0.13177644 0.06217356 -0.033137169 4278190080 32693
0.14332187 0.048798505 -0.028951256 4278190080 31859
0.13756651 0.049199089 -0.033799827 4278190080 29611
0.13553216 0.051427983 -0.035943706 4278190080 29725
0.13163799 0.06178949 -0.033418253 4278190080 29953
0.14366998 0.048914913 -0.028673612 4278190080 32455
0.13166618 0.058286522 -0.035306957 4278190080 33737
0.14801432 0.062530711 -0.026036855 4278190080 29137
0.14034168 0.048140466 -0.031410024 4278190080 29908
0.1314096 0.059769697 -0.034616038 4278190080 30677
0.13137423 0.061029315 -0.033981759 4278190080 28202
0.13190401 0.063193567 -0.032538876 4278190080 30126
0.13843282 0.04850065 -0.033000585 4278190080 28159
0.14816691 0.05435802 -0.025290625 4278190080 31716
0.13198444 0.056822892 -0.036016911 4278190080 30309
0.13337937 0.054177344 -0.036692034 4278190080 31661
0.13318034 0.054421209 -0.036640197 4278190080 30775
0.13945009 0.068092994 -0.028998129 4278190080 32543
0.13122036 0.060640365 -0.034256883 4278190080 27865
0.14062802 0.047897398 -0.031131377 4278190080 30658
0.13778304 0.04861005 -0.033515137 4278190080 29950
0.13533796 0.067106441 -0.030123727 4278190080 34529
0.146336 0.050512683 -0.026728787 4278190080 31573
0.14383301 0.067407891 -0.027791841 4278190080 30235
0.13106589 0.059615828 -0.034842893 4278190080 31514
0.13432674 0.052278712 -0.036609393 4278190080 28956
0.1310301 0.060871895 -0.034210075 4278190080 31613
0.13140847 0.057535987 -0.035868343 4278190080 28197
0.13994569 0.047669347 -0.031658072 4278190080 35217
0.13179584 0.056423407 -0.036281794 4278190080 35031
0.13512617 0.050950669 -0.03616105 4278190080 29875
0.14358136 0.048191823 -0.028651379 4278190080 28910
0.14057612 0.047540691 -0.031117678 4278190080 32156
0.13304931 0.054045536 -0.036923308 4278190080 29122
0.1338277 0.052735955 -0.03680246 4278190080 29001
0.13156751 0.063673273 -0.032461461 4278190080 33962
0.1373678 0.048466891 -0.033746962 4278190080 34798
0.14892508 0.061111305 -0.025102654 4278190080 33463
0.13128237 0.06321945 -0.032706667 4278190080 30431
0.13111041 0.062819652 -0.032978587 4278190080 31358
0.14919525 0.059778251 -0.024777032 4278190080 30204
0.13220683 0.06494005 -0.03166654 4278190080 31577
0.14059101 0.068640187 -0.028552692 4278190080 32958
0.13830772 0.04779008 -0.032966461 4278190080 33804
0.13656735 0.048848331 -0.034546208 4278190080 27818
0.13241084 0.065360047 -0.031397369 4278190080 33712
0.13062365 0.060686439 -0.034420509 4278190080 28957
0.13929899 0.047452983 -0.032186251 4278190080 30226
0.14891985 0.061829519 -0.025106756 4278190080 29411
0.14706352 0.050759513 -0.026149115 4278190080 34239
0.13120879 0.063502267 -0.032690816 4278190080 31708
0.14823657 0.064055756 -0.026085151 4278190080 34326
0.14888263 0.054616738 -0.024691381 4278190080 31510
0.13857658 0.068683557 -0.028826341 4278190080 33293
0.13079533 0.058224726 -0.035709698 4278190080 35372
0.13477887 0.050822191 -0.036394425 4278190080 31500
0.13526237 0.050021973 -0.035863742 4278190080 30996
0.13778543 0.068632662 -0.028999368 4278190080 29327
0.14931534 0.056216817 -0.024411086 4278190080 33619
0.13116775 0.05679512 -0.036431894 4278190080 33197
0.1318336 0.055159673 -0.036919191 4278190080 28970
0.13294998 0.053361569 -0.037212264 4278190080 35075
0.14827207 0.064429246 -0.026093766 4278190080 28412
0.1411705 0.068918094 -0.028327603 4278190080 28279
0.13149717 0.055659343 -0.036830567 4278190080 33716
0.13300179 0.053060215 -0.037224315 4278190080 28407
0.13049358 0.062527947 -0.03345532 4278190080 28501
0.13136651 0.055923391 -0.036796644 4278190080 32499
0.14243601 0.068832874 -0.028228682 4278190080 34120
0.13544755 0.068147056 -0.029500626 4278190080 32904
0.14818703 0.064751767 -0.026081542 4278190080 32314
0.13712974 0.04772348 -0.033684559 4278190080 30993
0.14202893 0.068985008 -0.028151702 4278190080 32815
0.14856458 0.064196087 -0.025783002 4278190080 34518
0.14948851 0.060979333 -0.024471208 4278190080 35379
0.14919391 0.054368883 -0.024379203 4278190080 35092
0.13065083 0.063553534 -0.032871194 4278190080 30748
0.13365106 0.051697496 -0.037070021 4278190080 31520
0.13312183 0.052462991 -0.037252955 4278190080 28035
0.14918213 0.054004017 -0.02437483 4278190080 33829
0.13071635 0.056919649 -0.036625605 4278190080 29840
