# .PCD v0.7 - Point Cloud Data file format
VERSION 0.7
FIELDS x y z rgba label
SIZE 4 4 4 4 4
TYPE F F F U U
COUNT 1 1 1 1 1
WIDTH 848
HEIGHT 1
VIEWPOINT 0 0 0 1 0 0 0
POINTS 848
DATA ascii
0.20340334 0.012183712 0.070792727 4278190080 21673
0.20257987 0.01488923 0.067362279 4278190080 21582
0.19867527 0.023043726 0.068639055 4278190080 22231
0.19854252 0.020991543 0.068100803 4278190080 22186
0.20225237 0.013221288 0.070138201 4278190080 21603
0.19935289 0.019908285 0.067143701 4278190080 22162
0.20239688 0.013663004 0.069262169 4278190080 21612
0.20216793 0.015870428 0.068599239 4278190080 21779
0.19888252 0.022963196 0.069960408 4278190080 22416
0.20207094 0.014785441 0.068034068 4278190080 21692
0.2025435 0.015532575 0.06881319 4278190080 21793
0.19933136 0.021051547 0.067164287 4278190080 22257
0.20347019 0.011526813 0.073339142 4278190080 21689
0.19901575 0.016543882 0.069606595 4278190080 22157
0.19998784 0.015419678 0.069845185 4278190080 22156
0.20101696 0.013481935 0.071616493 4278190080 21705
0.19936788 0.016678872 0.068904638 4278190080 22132
0.20081583 0.014258319 0.070541546 4278190080 21667
0.20010313 0.01565823 0.069422245 4278190080 22204
0.20206457 0.011702964 0.075555041 4278190080 21684
0.20202681 0.01235324 0.073039003 4278190080 21648
0.20254105 0.012630076 0.075975798 4278190080 21804
0.1992583 0.019673003 0.069138564 4278190080 22367
0.20114398 0.014360005 0.069838405 4278190080 21644
0.19902024 0.017937105 0.06804163 4278190080 22152
0.20170566 0.01346172 0.07067278 4278190080 21590
0.19970357 0.017159475 0.068087846 4278190080 22142
0.20236667 0.012229813 0.07279449 4278190080 21595
0.20250072 0.012005674 0.073289692 4278190080 21639
0.20131548 0.014579527 0.069429867 4278190080 21624
0.2018778 0.013342741 0.070379123 4278190080 21694
0.19813368 0.023222854 0.070791893 4278190080 22289
0.20261943 0.01210746 0.072524078 4278190080 21676
0.2029518 0.011552153 0.074335866 4278190080 21697
0.19770469 0.024195675 0.071504481 4278190080 22332
0.19749703 0.017438771 0.070362419 4278190080 22499
0.19769934 0.016997259 0.07017199 4278190080 22525
0.2005347 0.01274084 0.074751176 4278190080 21693
0.19741227 0.018822817 0.069937602 4278190080 22450
0.20091118 0.012296533 0.075768851 4278190080 21625
0.20119706 0.011748739 0.077555045 4278190080 21659
0.19778168 0.023825111 0.072782233 4278190080 22451
0.19918567 0.015949784 0.070594229 4278190080 22294
0.19756411 0.021682505 0.070673943 4278190080 22438
0.1965629 0.024964087 0.072787933 4278190080 22352
0.1999816 0.01471017 0.071205355 4278190080 22193
0.19791488 0.022512151 0.070924081 4278190080 22493
0.19605419 0.026018299 0.073803678 4278190080 22301
0.19787385 0.018989878 0.069269724 4278190080 22461
0.19772138 0.021033693 0.069772176 4278190080 22500
0.20076554 0.013381517 0.072336562 4278190080 21604
0.196931 0.014917032 0.076947019 4278190080 22540
0.19641988 0.016210219 0.074898578 4278190080 22543
0.19650301 0.016110588 0.074579008 4278190080 22471
0.19756748 0.014140384 0.077009268 4278190080 22479
0.19729437 0.013450284 0.07677988 4278190080 22329
0.19643755 0.016935494 0.073568933 4278190080 22436
0.19633678 0.017275235 0.073438518 4278190080 22441
0.19774887 0.01311204 0.077030338 4278190080 22419
0.19758412 0.013588243 0.076083966 4278190080 22310
0.19099903 0.019759474 0.072628908 4278190080 22916
0.19603026 0.018979704 0.072848804 4278190080 22476
0.19633859 0.017861288 0.07289502 4278190080 22550
0.19800997 0.013249421 0.076322958 4278190080 22303
0.19047956 0.020413505 0.072310336 4278190080 22924
0.19619788 0.019231234 0.072455525 4278190080 22512
0.19119775 0.019963365 0.071906015 4278190080 22911
0.19845626 0.012908851 0.076569162 4278190080 22410
0.19798905 0.014467348 0.074402645 4278190080 22469
0.19799492 0.014102851 0.074182585 4278190080 22356
0.19163352 0.019836489 0.071331412 4278190080 22921
0.19713198 0.01620744 0.072494149 4278190080 22494
0.1897776 0.021911325 0.072479725 4278190080 22927
0.19857699 0.013117107 0.084557414 4278190080 8697
0.18912512 0.021922452 0.072623909 4278190080 22926
0.18997481 0.022283984 0.072463222 4278190080 22928
0.19666648 0.017914014 0.07185638 4278190080 22506
0.19143333 0.020171368 0.071191996 4278190080 22920
0.1993379 0.012025424 0.081710435 4278190080 22252
0.19940934 0.011813741 0.079485744 4278190080 22269
0.19879258 0.013326946 0.084887788 4278190080 8721
0.19135003 0.020517034 0.071087867 4278190080 22912
0.19818904 0.014241049 0.073448181 4278190080 22334
0.19773956 0.015433778 0.07252904 4278190080 22523
0.1968499 0.017820319 0.07156422 4278190080 22497
0.20043898 0.013355288 0.082529761 4278190080 22091
0.19711937 0.024943775 0.075268015 4278190080 22458
0.19853696 0.013901428 0.073655874 4278190080 22321
0.19103973 0.022504937 0.07165838 4278190080 22919
0.19743943 0.016012721 0.071890645 4278190080 22518
0.19675848 0.019198027 0.071138784 4278190080 22465
0.19672586 0.020786172 0.071424462 4278190080 22452
0.19739099 0.023545243 0.073112756 4278190080 22484
0.19895762 0.013802304 0.073436059 4278190080 22424
0.1972717 0.017288359 0.071093388 4278190080 22538
0.19749963 0.013573619 0.087438464 4278190080 8662
0.19714111 0.017628333 0.070955351 4278190080 22454
0.19729427 0.022980608 0.072486103 4278190080 22495
0.19823927 0.014894857 0.072080009 4278190080 22453
0.19924933 0.012948992 0.085686162 4278190080 8679
0.19937454 0.012825612 0.085505396 4278190080 8676
0.19765656 0.016160961 0.071157761 4278190080 22520
0.19662665 0.024179395 0.072664529 4278190080 22404
0.19537348 0.026706908 0.074856579 4278190080 22285
0.19765042 0.023360072 0.072493359 4278190080 22513
0.19614395 0.025580771 0.07358893 4278190080 22274
0.19632097 0.015791146 0.07723818 4278190080 22440
0.19649686 0.015211875 0.07784117 4278190080 22531
0.19686984 0.014135071 0.086890489 4278190080 8660
0.19665965 0.014872669 0.077995345 4278190080 22547
0.19594623 0.024343019 0.075780563 4278190080 22514
0.19636984 0.015931405 0.076463938 4278190080 22486
0.19868876 0.015060407 0.081368096 4278190080 22052
0.19659485 0.014214294 0.088005625 4278190080 8657
0.1967718 0.013250644 0.079655945 4278190080 22271
0.1949196 0.028477818 0.078405187 4278190080 16474
0.19737244 0.013164594 0.081044205 4278190080 22245
0.19606467 0.014287677 0.089196101 4278190080 8639
0.19618247 0.014168339 0.089021951 4278190080 8623
0.19731051 0.013715847 0.07931003 4278190080 22509
0.19569504 0.017997392 0.074518323 4278190080 22473
0.19455229 0.016256202 0.077993095 4278190080 22407
0.19457896 0.018991075 0.076458141 4278190080 22462
0.19499652 0.015167966 0.079588167 4278190080 22194
0.19465046 0.018654604 0.076579779 4278190080 22490
0.19502208 0.017070882 0.077536866 4278190080 22478
0.19651067 0.015423974 0.082116798 4278190080 21710
0.19515872 0.014835584 0.079747558 4278190080 22237
0.19650796 0.01530005 0.081758559 4278190080 21780
0.19392483 0.023628388 0.075616285 4278190080 22319
0.19486825 0.0198288 0.075575754 4278190080 22482
0.19520663 0.018140601 0.076177478 4278190080 22455
0.19528677 0.017802842 0.076302171 4278190080 22457
0.1974676 0.015166499 0.084257498 4278190080 8758
0.19398676 0.025083644 0.075580709 4278190080 22380
0.19587196 0.016219566 0.077333726 4278190080 22464
0.19620241 0.015407284 0.078432269 4278190080 22522
0.19489887 0.027544975 0.07810016 4278190080 16599
0.19548255 0.017368136 0.076121457 4278190080 22546
0.19683585 0.014159184 0.085128933 4278190080 8698
0.19111183 0.01887936 0.0736055 4278190080 22923
0.19718418 0.014510779 0.085425556 4278190080 8714
0.19419432 0.026154956 0.075934395 4278190080 22166
0.19614062 0.015543178 0.077621609 4278190080 22446
0.19593211 0.014758694 0.088636957 4278190080 8665
0.19017197 0.020199033 0.072994336 4278190080 22922
0.19220422 0.021036832 0.076799124 4278190080 22260
0.19396347 0.021287477 0.077718094 4278190080 22107
0.19439112 0.022043018 0.078001834 4278190080 21958
0.19252913 0.018091425 0.077817552 4278190080 22154
0.19484875 0.025698906 0.079301566 4278190080 16552
0.19259875 0.019966107 0.076904513 4278190080 22216
0.19517571 0.017964138 0.080061086 4278190080 21912
0.19337928 0.027900854 0.079494536 4278190080 16234
0.19315876 0.023218475 0.076821052 4278190080 22075
0.19273482 0.024663987 0.076910466 4278190080 21833
0.19245115 0.021605298 0.076349765 4278190080 22185
0.19517945 0.018129097 0.079579704 4278190080 21923
0.19426243 0.027324148 0.079422586 4278190080 16358
0.19356242 0.027941663 0.079289548 4278190080 16242
0.19348316 0.020340763 0.076787554 4278190080 22383
0.19259082 0.022932952 0.075991608 4278190080 22206
0.19606671 0.016420947 0.082448401 4278190080 8829
0.19104512 0.030088883 0.079605147 4278190080 15807
0.19315405 0.025903659 0.076930337 4278190080 21739
0.19311833 0.024533408 0.076390617 4278190080 22047
0.19275467 0.023274686 0.075944401 4278190080 22133
0.19123115 0.029068531 0.078343488 4278190080 16141
0.19395477 0.016480885 0.078816488 4278190080 22136
0.19149117 0.0301704 0.079922214 4278190080 15751
0.19366394 0.019243402 0.076805957 4278190080 22421
0.19268256 0.026588241 0.076922297 4278190080 21716
0.19259143 0.03035631 0.080518231 4278190080 15684
0.18998727 0.031347435 0.080965549 4278190080 15475
0.19352134 0.023361523 0.075918354 4278190080 22314
0.19442211 0.015825702 0.079182975 4278190080 22170
0.1962194 0.015301655 0.084782362 4278190080 8741
0.19633876 0.017384086 0.079797521 4278190080 22103
0.19449557 0.020450475 0.076381579 4278190080 22472
0.19040717 0.031620204 0.080994472 4278190080 15455
0.19208975 0.031559762 0.082040466 4278190080 15299
0.19494133 0.027965881 0.078866176 4278190080 16457
0.19528387 0.027376002 0.078609385 4278190080 16579
0.1913653 0.032088462 0.083121359 4278190080 15024
0.19109899 0.031996109 0.082224175 4278190080 15187
0.19530122 0.015682066 0.086812057 4278190080 8715
0.19543666 0.017655104 0.082016379 4278190080 8897
0.19518386 0.015296681 0.086103678 4278190080 8696
0.19430804 0.017874157 0.080084369 4278190080 21775
0.19184485 0.01702743 0.094440676 4278190080 8576
0.19549182 0.016600221 0.082764983 4278190080 8835
0.19629365 0.022742437 0.080595918 4278190080 16723
0.19308168 0.022426724 0.077793837 4278190080 21899
0.19588996 0.017178724 0.082468651 4278190080 8873
0.19584684 0.01742626 0.081923485 4278190080 8863
0.1957617 0.015364494 0.086538054 4278190080 8722
0.19551556 0.015098543 0.085995935 4278190080 8692
0.19585741 0.015458628 0.085364193 4278190080 8739
0.19577099 0.016723258 0.08230374 4278190080 8856
0.19245248 0.017006079 0.094556458 4278190080 8596
0.19448219 0.020077219 0.078685582 4278190080 22006
0.18901733 0.023240438 0.087203994 4278190080 8924
0.18869145 0.023619223 0.087830164 4278190080 8904
0.18897869 0.022999085 0.087889835 4278190080 8888
0.18877999 0.024308449 0.087055393 4278190080 8979
0.18908069 0.024070051 0.08725705 4278190080 8955
0.18869556 0.024572879 0.087149151 4278190080 8995
0.18860884 0.022310745 0.088432446 4278190080 8823
0.18933256 0.023782622 0.086325295 4278190080 8985
0.18865706 0.023201047 0.088581234 4278190080 8900
0.18955253 0.023400988 0.086553223 4278190080 8960
0.18948199 0.023598079 0.086468801 4278190080 8952
0.18906754 0.021884473 0.087844133 4278190080 8822
0.18912365 0.021798654 0.087675788 4278190080 8847
0.18869422 0.022106506 0.088522807 4278190080 8834
0.18839186 0.023424676 0.088857114 4278190080 8858
0.18790822 0.024955219 0.086153589 4278190080 8996
0.18853751 0.024469223 0.085639894 4278190080 9003
0.18846944 0.023853881 0.088732578 4278190080 8915
0.18896867 0.022679238 0.088626228 4278190080 8878
0.18846875 0.024678003 0.088146225 4278190080 8963
0.1882319 0.02482844 0.08577989 4278190080 9020
0.18979067 0.022249596 0.086855553 4278190080 8880
0.18845974 0.024917064 0.087796159 4278190080 8989
0.18956797 0.022070181 0.087714151 4278190080 8860
0.18989791 0.023038452 0.086543456 4278190080 8936
0.18991642 0.023071576 0.086116523 4278190080 8931
0.1882814 0.023421379 0.089246884 4278190080 8881
0.18791515 0.023957683 0.089178696 4278190080 8879
0.18855943 0.025127176 0.086025931 4278190080 9030
0.18835331 0.025331466 0.086314924 4278190080 9036
0.18992259 0.021852469 0.087021939 4278190080 8885
0.18829113 0.025003048 0.088341199 4278190080 8972
0.18830036 0.025415367 0.086475387 4278190080 9033
0.18822494 0.024788758 0.088667206 4278190080 8932
0.18766274 0.025522882 0.086423956 4278190080 9006
0.18785436 0.02286122 0.089521177 4278190080 8851
0.18947722 0.021189228 0.087542258 4278190080 8818
0.18827872 0.025175814 0.088277601 4278190080 8971
0.19023226 0.022611627 0.086342692 4278190080 8966
0.18932778 0.024521226 0.085375667 4278190080 9024
0.18798912 0.025721079 0.086904205 4278190080 9026
0.1885841 0.02503521 0.085319735 4278190080 9044
0.18813606 0.024232313 0.089345649 4278190080 8921
0.18929242 0.021474065 0.088558108 4278190080 8809
0.18923128 0.021561714 0.088725172 4278190080 8806
0.18793151 0.025467973 0.085644454 4278190080 9059
0.1878055 0.024125073 0.089507066 4278190080 8865
0.19019929 0.022769958 0.085649505 4278190080 8938
0.18773153 0.025669523 0.085932881 4278190080 9068
0.18989339 0.021189932 0.086993597 4278190080 8844
0.19026586 0.022193113 0.085943282 4278190080 8923
0.19022514 0.021719238 0.086495124 4278190080 8857
0.18797483 0.024524132 0.089409865 4278190080 8927
0.18878432 0.021809151 0.08937718 4278190080 8813
0.18747339 0.02353283 0.08981619 4278190080 8824
0.19040297 0.022522746 0.085776478 4278190080 8965
0.18790831 0.022619352 0.089927472 4278190080 8815
0.18847081 0.02540651 0.085162982 4278190080 9046
0.18728249 0.023663631 0.089928843 4278190080 8849
0.18794553 0.02459937 0.089582227 4278190080 8909
0.18983628 0.021080034 0.088181071 4278190080 8801
0.18870333 0.025191935 0.08487913 4278190080 9074
0.18849523 0.025632242 0.085328348 4278190080 9106
0.18793653 0.026157886 0.086030804 4278190080 9080
0.18770137 0.022821523 0.090221167 4278190080 8803
0.19004144 0.020873321 0.087871812 4278190080 8807
0.18730314 0.023549484 0.090179645 4278190080 8841
0.18758954 0.024222353 0.09003713 4278190080 8868
0.1886972 0.025657589 0.085154071 4278190080 9100
0.18993349 0.020802215 0.088086069 4278190080 8817
0.18950695 0.021074492 0.089086123 4278190080 8788
0.18726186 0.026450921 0.086949073 4278190080 9049
0.18859823 0.021850122 0.090077557 4278190080 8782
0.18733616 0.026459225 0.086563557 4278190080 9072
0.19011518 0.020603485 0.087768219 4278190080 8795
0.19038564 0.020744435 0.086396456 4278190080 8826
0.18941967 0.023542484 0.083808854 4278190080 9019
0.18795165 0.026413942 0.085740358 4278190080 9077
0.18680942 0.026367178 0.088136755 4278190080 9014
0.18937705 0.023726502 0.083734222 4278190080 9023
0.18745822 0.026714463 0.086923882 4278190080 9089
0.18996695 0.020779833 0.088869818 4278190080 8781
0.18712714 0.026540926 0.088018142 4278190080 9038
0.1876483 0.02561185 0.089670733 4278190080 8956
0.19080333 0.020956442 0.086238571 4278190080 8886
0.1868898 0.026710775 0.087172389 4278190080 9070
0.187745 0.025305906 0.09000656 4278190080 8962
0.18706986 0.024764212 0.090330392 4278190080 8872
0.18689243 0.026872082 0.087114513 4278190080 9053
0.19086511 0.022300582 0.084673546 4278190080 8946
0.18745776 0.025092263 0.090310723 4278190080 8913
0.19091243 0.021554669 0.085019641 4278190080 8919
0.18812025 0.022165433 0.090895034 4278190080 8787
0.1903391 0.020271445 0.088487484 4278190080 8792
0.18952449 0.024932774 0.08374092 4278190080 9098
0.18813799 0.026636472 0.084955566 4278190080 9149
0.18678585 0.023879437 0.09095744 4278190080 8821
0.19072968 0.02004512 0.087020501 4278190080 8816
0.19049348 0.023364581 0.083737716 4278190080 9027
0.19043788 0.022851588 0.083671659 4278190080 8997
0.1911238 0.02092446 0.085454844 4278190080 8876
0.1911568 0.02195208 0.084637322 4278190080 8944
0.18646486 0.026842611 0.08848168 4278190080 9008
0.18971117 0.020908853 0.090142123 4278190080 8763
0.18671957 0.026938934 0.088573255 4278190080 9028
0.19081572 0.020079689 0.088014662 4278190080 8789
0.18734437 0.025805583 0.090339109 4278190080 8941
0.18895796 0.025757356 0.083634518 4278190080 9134
0.1869857 0.027257174 0.085675985 4278190080 9112
0.19132064 0.020564323 0.085832536 4278190080 8867
0.18670416 0.02736442 0.087709121 4278190080 9091
0.18659972 0.024071759 0.091250449 4278190080 8852
0.18679281 0.024945125 0.091011152 4278190080 8870
0.18717152 0.025928689 0.090453133 4278190080 8968
0.19012243 0.023647496 0.083025232 4278190080 9060
0.1911293 0.020135934 0.085678995 4278190080 8845
0.18690151 0.026489016 0.090112716 4278190080 8975
0.18659188 0.023968332 0.091488056 4278190080 8850
0.18650176 0.027682891 0.086205423 4278190080 9118
0.18658723 0.023850992 0.091632746 4278190080 8796
0.19149506 0.021069391 0.084441051 4278190080 8910
0.18654794 0.025325164 0.091220967 4278190080 8899
0.19163297 0.02053507 0.085039176 4278190080 8901
0.18677627 0.026761455 0.090185955 4278190080 8990
0.19162069 0.020650305 0.084780812 4278190080 8884
0.18950967 0.020937331 0.091178156 4278190080 8749
0.19151978 0.020992789 0.084258653 4278190080 8908
0.19063924 0.023889117 0.082861729 4278190080 9081
0.1888784 0.021098763 0.0915218 4278190080 8724
0.19110754 0.019879673 0.089096233 4278190080 8775
0.18573515 0.027122272 0.089286096 4278190080 8999
0.18608937 0.027190942 0.089453787 4278190080 9015
0.18912959 0.020945748 0.091424987 4278190080 8740
0.18756697 0.02743946 0.084290288 4278190080 9155
0.19156344 0.020800194 0.084335022 4278190080 8920
0.19169709 0.021482894 0.08404468 4278190080 8959
0.19015427 0.020124588 0.090448923 4278190080 8744
0.190265 0.020019133 0.0902941 4278190080 8732
0.18882066 0.021184158 0.091692217 4278190080 8735
0.18634574 0.027903661 0.088216409 4278190080 9088
0.18730256 0.027661515 0.084549956 4278190080 9171
0.19141507 0.022101969 0.083318882 4278190080 8993
0.18635879 0.023886682 0.091964871 4278190080 8805
0.18913423 0.020765113 0.091486365 4278190080 8738
0.18617354 0.024473283 0.091810174 4278190080 8820
0.18624488 0.028035766 0.08794976 4278190080 9084
0.18644437 0.028194582 0.08698079 4278190080 9133
0.19121532 0.019659406 0.089196295 4278190080 8764
0.1906371 0.023188133 0.082442597 4278190080 9047
0.18606351 0.028152023 0.086913362 4278190080 9126
0.18675667 0.026493406 0.090954363 4278190080 8951
0.18601742 0.027441872 0.08954408 4278190080 9016
0.18599734 0.028142221 0.087289616 4278190080 9108
0.19052008 0.019614324 0.090056285 4278190080 8730
0.18680599 0.025661936 0.091565609 4278190080 8914
0.18585981 0.027866459 0.088488638 4278190080 9052
0.19170003 0.021647876 0.083526768 4278190080 8986
0.19190893 0.020186979 0.084994763 4278190080 8869
0.1866556 0.028175663 0.085588954 4278190080 9172
0.19202998 0.021183167 0.08420676 4278190080 8949
0.1906728 0.023343215 0.082389243 4278190080 9050
0.18846312 0.021503579 0.092129849 4278190080 8729
0.19186541 0.020425068 0.08447095 4278190080 8871
0.18887413 0.021551367 0.092085749 4278190080 8751
0.1888041 0.026222991 0.08259137 4278190080 9176
0.1911874 0.019546797 0.089461058 4278190080 8755
0.19163327 0.019239904 0.08596658 4278190080 8798
0.19012442 0.024258278 0.082105756 4278190080 9119
0.1914809 0.019429287 0.088898197 4278190080 8762
0.18672703 0.026567604 0.091122709 4278190080 8969
0.1864215 0.028455922 0.086686529 4278190080 9148
0.1857 0.027790107 0.089063123 4278190080 9057
0.18678671 0.025732761 0.091739021 4278190080 8922
0.18884735 0.021625716 0.092266805 4278190080 8756
0.19118866 0.019223183 0.08924982 4278190080 8725
0.19173087 0.019386422 0.088530123 4278190080 8769
0.18754797 0.022593489 0.092598081 4278190080 8767
0.18614496 0.024610352 0.092162997 4278190080 8843
0.19049762 0.024922412 0.082356237 4278190080 9146
0.18596062 0.027708612 0.089685321 4278190080 9025
0.18571126 0.028043672 0.088779896 4278190080 9056
0.18568806 0.027954413 0.08900138 4278190080 9067
0.1887268 0.021732533 0.092410527 4278190080 8746
0.18913312 0.025907997 0.082162768 4278190080 9160
0.18776147 0.027693458 0.083569862 4278190080 9200
0.18956403 0.027152035 0.083371781 4278190080 15331
0.18625528 0.028567344 0.086131103 4278190080 9164
0.18805003 0.027400171 0.083147906 4278190080 9234
0.18748745 0.027918844 0.083825871 4278190080 9239
0.18909605 0.020230655 0.091853052 4278190080 8688
0.19100949 0.023082681 0.082115643 4278190080 9045
0.19193245 0.021425704 0.083216883 4278190080 8976
0.19103436 0.023240022 0.082126811 4278190080 9096
0.18890283 0.026367476 0.082285747 4278190080 9188
0.18575442 0.028510513 0.087488092 4278190080 9107
0.19039258 0.019688895 0.090944923 4278190080 8718
0.19064151 0.025882404 0.082737394 4278190080 15571
0.1864026 0.025186198 0.092243493 4278190080 8902
0.19224222 0.01981594 0.084967047 4278190080 8883
0.19198515 0.019040283 0.08588393 4278190080 8810
0.18893522 0.026292702 0.082124002 4278190080 9179
0.18610725 0.028720712 0.087486535 4278190080 9152
0.18652555 0.026762871 0.091401741 4278190080 8961
0.19223891 0.020039761 0.084453478 4278190080 8891
0.18536179 0.027564574 0.090018779 4278190080 9002
0.19050895 0.01905077 0.090417616 4278190080 8693
0.19192725 0.021534653 0.082963631 4278190080 8984
0.19238836 0.020736583 0.083995715 4278190080 8934
0.18751715 0.028000871 0.083609611 4278190080 9208
0.19206595 0.018910615 0.086943805 4278190080 8791
0.18807663 0.021719076 0.092801288 4278190080 8737
0.19050564 0.023915648 0.081671 4278190080 9125
0.18618253 0.028810306 0.086217478 4278190080 9167
0.19221748 0.021018026 0.083437555 4278190080 8958
0.18932202 0.020673905 0.092305176 4278190080 8703
0.18628968 0.02545671 0.092321664 4278190080 8887
0.18864031 0.020167271 0.092241928 4278190080 8674
0.18704596 0.028481236 0.084305249 4278190080 9222
0.1879469 0.027811019 0.083170071 4278190080 9203
0.18754824 0.028205104 0.0837273 4278190080 9212
0.18588385 0.028441476 0.08908236 4278190080 9095
0.18915215 0.027809804 0.083415844 4278190080 15154
0.18637945 0.027010923 0.091393478 4278190080 8988
0.18941541 0.020392839 0.092207432 4278190080 8707
0.19224 0.018893439 0.086546533 4278190080 8794
0.18579228 0.02856949 0.088819236 4278190080 9101
0.19116807 0.023055963 0.081799224 4278190080 9092
0.18645188 0.023866707 0.092957303 4278190080 8779
0.18594731 0.028984958 0.086865343 4278190080 9162
0.19227451 0.020928729 0.083263621 4278190080 8940
0.19216982 0.019163128 0.084906168 4278190080 8833
0.19115274 0.023230074 0.081731714 4278190080 9087
0.19211976 0.021394748 0.082828857 4278190080 8983
0.18571401 0.025284471 0.092417039 4278190080 8848
0.18974394 0.020209847 0.092138574 4278190080 8716
0.18999794 0.027477711 0.083148427 4278190080 15317
0.19254936 0.019744121 0.08460968 4278190080 8890
0.18984401 0.025091972 0.081368871 4278190080 9173
0.18911716 0.027997598 0.083318211 4278190080 15190
0.19058347 0.018587543 0.090416096 4278190080 8680
0.18688072 0.028817303 0.084530592 4278190080 9220
0.19108467 0.018985115 0.090468898 4278190080 8709
0.19226387 0.018800121 0.085582472 4278190080 8814
0.1897558 0.028372211 0.084208466 4278190080 15070
0.18549839 0.024561206 0.092703179 4278190080 8802
0.18545449 0.02886405 0.088061333 4278190080 9114
0.19222735 0.018961493 0.084987238 4278190080 8853
0.18707849 0.023249155 0.093286745 4278190080 8776
0.1921351 0.021321319 0.082644425 4278190080 8994
0.18649082 0.029049419 0.085130915 4278190080 9226
0.18582156 0.029101925 0.087667435 4278190080 9143
0.18940139 0.028094131 0.083377168 4278190080 15178
0.18593591 0.029125858 0.085939065 4278190080 9199
0.19263679 0.019531677 0.084699638 4278190080 8896
0.18578422 0.029165599 0.08714366 4278190080 9163
0.19003887 0.024952376 0.081244223 4278190080 9177
0.18512239 0.027833859 0.090448759 4278190080 9005
0.18571642 0.028107472 0.090458177 4278190080 9031
0.18832822 0.02103452 0.093105979 4278190080 8691
0.19208901 0.025365181 0.082671799 4278190080 15737
0.1869705 0.023175765 0.093486525 4278190080 8760
0.19077608 0.026546476 0.082266785 4278190080 15657
0.19174431 0.023719842 0.081738181 4278190080 9137
0.18555468 0.025295841 0.092769913 4278190080 8830
0.19240138 0.018827559 0.084845707 4278190080 8846
0.19185559 0.025157796 0.082227007 4278190080 15806
0.19267179 0.019674128 0.084001437 4278190080 8864
0.18863653 0.021133523 0.093262233 4278190080 8708
0.18794267 0.027149267 0.08168675 4278190080 15482
0.19272269 0.018686803 0.0878793 4278190080 8766
0.18622704 0.026305543 0.092592016 4278190080 8918
0.18556571 0.029314579 0.087914303 4278190080 9127
0.18693897 0.023424322 0.093603358 4278190080 8765
0.18876205 0.02892383 0.083822556 4278190080 15007
0.18744478 0.022322914 0.093686923 4278190080 8726
0.19204956 0.018271087 0.089149639 4278190080 8720
0.18616094 0.027036633 0.092206664 4278190080 8943
0.18604824 0.029572288 0.085979506 4278190080 9237
0.19260803 0.018534346 0.085298739 4278190080 8812
0.18590353 0.029592939 0.086316995 4278190080 9202
0.18533894 0.028782427 0.089791238 4278190080 9076
0.19031692 0.024651658 0.080789447 4278190080 9156
0.18552989 0.029532272 0.087332465 4278190080 9165
0.19293727 0.02025627 0.08338993 4278190080 8935
0.18517333 0.029209428 0.088636845 4278190080 9109
0.18746287 0.021427784 0.093646735 4278190080 8686
0.1860849 0.024242271 0.093539357 4278190080 8793
0.18609533 0.024068134 0.093600228 4278190080 8786
0.18504076 0.029160349 0.088813409 4278190080 9113
0.18550469 0.029332284 0.08885023 4278190080 9135
0.1900252 0.028292039 0.083019063 4278190080 15328
0.18531151 0.028950287 0.089724086 4278190080 9097
0.18531881 0.028851757 0.089954473 4278190080 9103
0.19056323 0.024490977 0.080674917 4278190080 9168
0.18738316 0.02264869 0.093983665 4278190080 8743
0.19143456 0.021582345 0.081077017 4278190080 9022
0.18496107 0.028607786 0.090328738 4278190080 9055
0.19277862 0.019797197 0.083161339 4278190080 8917
0.19124122 0.023235844 0.080781087 4278190080 9115
0.18853641 0.027698547 0.081648797 4278190080 15425
0.18606248 0.029459069 0.084358826 4278190080 9270
0.19196327 0.023603756 0.081188664 4278190080 9130
0.19064093 0.029014701 0.084241845 4278190080 15023
0.18902729 0.028739559 0.082730427 4278190080 15247
0.18494964 0.029410025 0.088891983 4278190080 9117
0.18534438 0.029850366 0.08667466 4278190080 9194
0.18604511 0.029615529 0.084297672 4278190080 9249
0.19098574 0.026530869 0.081451818 4278190080 15764
0.19200426 0.022233581 0.081089951 4278190080 9058
0.18537229 0.028256882 0.091444246 4278190080 9007
0.18850917 0.027886258 0.081552304 4278190080 15470
0.18595469 0.026754647 0.092960104 4278190080 8925
0.19228905 0.017577518 0.088647716 4278190080 8694
0.19230787 0.017501341 0.088452853 4278190080 8690
0.18649359 0.029572159 0.08382614 4278190080 9269
0.1872467 0.023076747 0.094271421 4278190080 8752
0.1847304 0.028278084 0.091162026 4278190080 9000
0.18714546 0.02969626 0.083846003 4278190080 9300
0.1929348 0.018827237 0.083836377 4278190080 8838
0.18488845 0.028757339 0.090642743 4278190080 9054
0.18529426 0.030048108 0.08714895 4278190080 9187
0.18894355 0.028941751 0.08260785 4278190080 15225
0.19313483 0.017960772 0.087550588 4278190080 8753
0.18599428 0.026638333 0.093213364 4278190080 8907
0.1915562 0.025228137 0.080945678 4278190080 15938
0.18970783 0.029173942 0.083228827 4278190080 15118
0.18487962 0.029557513 0.089203291 4278190080 9120
0.18507612 0.02912131 0.090372436 4278190080 9085
0.19162846 0.021373 0.080756858 4278190080 9011
0.18518277 0.030055746 0.087493144 4278190080 9189
0.1855291 0.02989356 0.084847078 4278190080 9243
0.18714519 0.023174904 0.094416626 4278190080 8754
0.19161546 0.018161811 0.091128848 4278190080 8654
0.19169296 0.018063687 0.090955086 4278190080 8659
0.18763854 0.021803387 0.094367467 4278190080 8689
0.18547907 0.029971074 0.084993012 4278190080 9278
0.1861105 0.029951541 0.084366724 4278190080 9245
0.18514299 0.030033238 0.088192396 4278190080 9175
0.18968026 0.019703696 0.09345188 4278190080 8650
0.19160511 0.025980718 0.081093341 4278190080 15876
0.19319957 0.019678455 0.082829483 4278190080 8926
0.19081055 0.018821394 0.092500865 4278190080 8656
0.1930735 0.017590782 0.087094657 4278190080 8745
0.18892449 0.029126234 0.082516976 4278190080 15248
0.18666136 0.030295229 0.084843665 4278190080 9317
0.19069649 0.018931432 0.092657208 4278190080 8655
0.18474525 0.029570518 0.089545608 4278190080 9122
0.18530862 0.0302852 0.087425567 4278190080 9235
0.18684016 0.030199772 0.084352911 4278190080 9306
0.18757279 0.022095915 0.0945599 4278190080 8723
0.19118387 0.023988485 0.080120064 4278190080 9170
0.19282843 0.020475149 0.081759848 4278190080 8982
0.19158879 0.02501658 0.080569558 4278190080 15892
0.18526128 0.030110037 0.085087612 4278190080 9273
0.19320467 0.018248156 0.084303573 4278190080 8855
0.18583471 0.030230431 0.084771626 4278190080 9267
0.19060549 0.029563854 0.083981544 4278190080 15100
0.18503727 0.02877517 0.091395535 4278190080 9039
0.18536207 0.028449651 0.091963485 4278190080 9010
0.1908462 0.027130028 0.081119537 4278190080 15785
0.18537453 0.026498497 0.093505733 4278190080 8889
0.19175991 0.025838848 0.080887131 4278190080 16032
0.19253263 0.021722835 0.08091744 4278190080 9048
0.18982257 0.029502306 0.083122045 4278190080 15141
0.18572454 0.026854744 0.093456328 4278190080 8906
0.18889815 0.029312691 0.08242254 4278190080 15244
0.18471488 0.025495239 0.093758203 4278190080 8800
0.19029588 0.018365383 0.092716299 4278190080 8633
0.18952848 0.029673291 0.083167106 4278190080 15196
0.18502313 0.030382674 0.087709405 4278190080 9191
0.1851844 0.030448571 0.087708332 4278190080 9224
0.1850958 0.026923144 0.093273737 4278190080 8898
0.19148336 0.026390955 0.080854677 4278190080 15897
0.18690018 0.0220853 0.094756819 4278190080 8671
0.18499678 0.028851258 0.091551006 4278190080 9037
0.18522605 0.030389423 0.08534278 4278190080 9271
0.19368672 0.017804662 0.087263212 4278190080 8770
0.19352779 0.017610859 0.087077036 4278190080 8750
0.19339769 0.018401191 0.083837852 4278190080 8836
0.19197051 0.025968777 0.080901049 4278190080 16033
0.18528619 0.030594856 0.087307483 4278190080 9204
0.19119906 0.026757801 0.080821969 4278190080 15942
0.18497694 0.030458579 0.087856457 4278190080 9192
0.18692371 0.021899069 0.09482646 4278190080 8673
0.19131918 0.027742233 0.081530795 4278190080 15715
0.18957953 0.029839134 0.083110854 4278190080 15198
0.18556352 0.027137563 0.093509488 4278190080 8912
0.18835832 0.019887639 0.094331495 4278190080 8608
0.19094038 0.027291398 0.080888882 4278190080 15819
0.19098935 0.027466232 0.081013083 4278190080 15775
0.18983817 0.018623913 0.093404979 4278190080 8610
0.1862167 0.024002949 0.094843119 4278190080 8773
0.19149685 0.027595766 0.081420749 4278190080 15701
0.18526241 0.030754132 0.087244131 4278190080 9216
0.19338007 0.023798982 0.081187367 4278190080 15814
0.19062389 0.029918902 0.083828315 4278190080 15036
0.18531279 0.026477713 0.093894601 4278190080 8862
0.19115712 0.026956962 0.080712192 4278190080 15927
0.18852037 0.028879059 0.081330575 4278190080 15463
0.18470359 0.026249154 0.093792573 4278190080 8825
0.19248843 0.022282131 0.080357663 4278190080 9093
0.18553337 0.024695313 0.094640039 4278190080 8785
0.19324301 0.017089648 0.088002227 4278190080 8706
0.18519938 0.03072474 0.085761286 4278190080 9248
0.19293654 0.024713906 0.08085791 4278190080 16025
0.18499315 0.03070919 0.08591155 4278190080 9276
0.18450058 0.025524264 0.094079524 4278190080 8808
0.19176678 0.025237696 0.080135308 4278190080 16070
0.18516827 0.03084667 0.087374821 4278190080 9211
0.18612745 0.030997276 0.085596554 4278190080 9311
0.19017763 0.028698262 0.081496723 4278190080 15548
0.1886432 0.02067961 0.094802529 4278190080 8669
0.18492632 0.027103566 0.093558997 4278190080 8882
0.1872136 0.022481136 0.095173143 4278190080 8712
0.18485439 0.030297659 0.089669682 4278190080 9132
0.19132279 0.017642375 0.092097796 4278190080 8628
0.18531674 0.026372412 0.094131924 4278190080 8894
0.19015609 0.030462651 0.084242381 4278190080 14968
0.18938875 0.018808264 0.093889154 4278190080 8618
0.18457875 0.030029491 0.090098955 4278190080 9123
0.18561704 0.027889527 0.093349047 4278190080 8953
0.19034712 0.030264506 0.083801262 4278190080 15103
0.19249012 0.017446917 0.090905525 4278190080 8666
0.19408669 0.017636087 0.086724535 4278190080 8772
0.19175792 0.025137737 0.079934381 4278190080 16054
0.19264629 0.021647427 0.080323502 4278190080 9063
0.19324794 0.022600701 0.080661319 4278190080 9145
0.19131735 0.026133502 0.080034025 4278190080 16090
0.19168334 0.02353053 0.079527467 4278190080 9154
0.18654472 0.030530186 0.083293125 4278190080 9340
0.18824044 0.019883933 0.094740584 4278190080 8609
0.19067793 0.018113045 0.093132325 4278190080 8622
0.18606448 0.024180468 0.095147811 4278190080 8761
0.18727651 0.030659784 0.083291523 4278190080 9363
0.18657792 0.023494581 0.095342524 4278190080 8727
0.19412853 0.017433854 0.086802542 4278190080 8768
0.18681902 0.031035241 0.084182806 4278190080 9382
0.19045705 0.018075205 0.093313083 4278190080 8614
0.18492219 0.031059429 0.086314738 4278190080 9281
0.1860567 0.03074085 0.083696082 4278190080 9345
0.19400962 0.017557573 0.085124694 4278190080 8777
0.18578407 0.031299386 0.085972682 4278190080 9309
0.18661155 0.023308629 0.095413931 4278190080 8734
0.18550201 0.027181843 0.094075568 4278190080 8916
0.19130962 0.028307596 0.081263512 4278190080 15736
0.18574885 0.030825622 0.083984241 4278190080 9331
0.19013101 0.019295812 0.094268724 4278190080 8644
0.1842223 0.029511617 0.091342695 4278190080 9040
0.18478546 0.03088337 0.088766478 4278190080 9193
0.18698959 0.030943437 0.083694518 4278190080 9375
0.18756323 0.020576863 0.095177293 4278190080 8616
0.1854493 0.027365224 0.093996398 4278190080 8911
0.18658237 0.022279641 0.095445015 4278190080 8681
0.19192652 0.024883887 0.079623319 4278190080 16127
0.18659933 0.031175429 0.084280066 4278190080 9377
0.19304201 0.02158829 0.080251724 4278190080 9086
0.19399691 0.017094109 0.086220026 4278190080 8748
0.19135289 0.026499495 0.079870515 4278190080 16080
0.18490838 0.03121274 0.086255625 4278190080 9259
0.18638079 0.023198323 0.095514342 4278190080 8713
0.1937352 0.016836163 0.087959111 4278190080 8704
0.18838623 0.03103783 0.083646312 4278190080 14852
0.19146401 0.018263789 0.093190074 4278190080 8642
0.1847191 0.031028247 0.088679537 4278190080 9206
0.18825643 0.021084117 0.09542273 4278190080 8652
0.18623501 0.030970162 0.083633475 4278190080 9333
0.18596795 0.031038534 0.08393465 4278190080 9350
0.18571785 0.030984001 0.083920084 4278190080 9323
0.19137685 0.018365515 0.093358561 4278190080 8648
0.19401555 0.01929366 0.082146473 4278190080 8948
0.18645954 0.022387076 0.095582321 4278190080 8682
0.18591921 0.031115148 0.084080368 4278190080 9356
0.18546788 0.031105109 0.084380195 4278190080 9346
0.19434725 0.017282965 0.086670354 4278190080 8757
0.19239454 0.020669067 0.07983245 4278190080 9018
0.18652803 0.031407312 0.084363461 4278190080 9376
0.18464804 0.031332813 0.086705215 4278190080 9280
0.1851889 0.026770232 0.094559163 4278190080 8866
0.18542007 0.028143158 0.093797453 4278190080 8942
0.18629991 0.031519488 0.084830038 4278190080 9374
0.18557957 0.027659358 0.094213024 4278190080 8957
0.18666942 0.031123057 0.083379827 4278190080 9396
0.19392936 0.020700453 0.080954909 4278190080 9032
0.18459558 0.030888481 0.089808337 4278190080 9161
0.19112235 0.028370807 0.080635585 4278190080 15767
0.19037215 0.02939084 0.081246227 4278190080 15529
0.18803467 0.020232841 0.095441863 4278190080 8637
0.19074367 0.028280744 0.080350533 4278190080 15836
0.18534791 0.028064366 0.093999244 4278190080 8945
0.19299115 0.021815954 0.079738416 4278190080 9078
0.19148162 0.027711106 0.080226213 4278190080 15894
0.184378 0.026168887 0.094710872 4278190080 8832
0.18782015 0.021435115 0.095819809 4278190080 8653
0.18462828 0.031084714 0.089576952 4278190080 9196
0.18820857 0.031484753 0.083829865 4278190080 14836
0.18629196 0.023358256 0.095854379 4278190080 8711
0.18436162 0.026340587 0.094648398 4278190080 8837
0.18863325 0.029754445 0.080968201 4278190080 15499
0.1862835 0.031730443 0.084928893 4278190080 9368
0.19217545 0.017001078 0.092076235 4278190080 8619
0.19261581 0.02379985 0.079285033 4278190080 15970
0.18896665 0.020323895 0.095573142 4278190080 8646
0.19428512 0.017180046 0.084409133 4278190080 8780
0.18521459 0.0316354 0.085042216 4278190080 9347
0.18540467 0.031654265 0.084885456 4278190080 9341
0.18593387 0.031886201 0.085355319 4278190080 9369
0.19264492 0.023499344 0.079191484 4278190080 15898
0.18493125 0.028825542 0.093505062 4278190080 8977
0.18504699 0.026775395 0.094910078 4278190080 8874
0.19335394 0.016657365 0.09046308 4278190080 8667
0.19421099 0.017745486 0.083081201 4278190080 8828
0.1846278 0.030709628 0.090977445 4278190080 9141
0.19385134 0.025556514 0.08054854 4278190080 16167
0.18503086 0.026947303 0.094847538 4278190080 8861
0.18996058 0.031395599 0.083751529 4278190080 14977
0.19255583 0.024288198 0.079136901 4278190080 16073
0.1845524 0.03122977 0.089873679 4278190080 9186
0.19439796 0.024614684 0.080695488 4278190080 16187
0.1854993 0.027977744 0.094477788 4278190080 8970
0.18722026 0.021038257 0.096007377 4278190080 8630
0.18401189 0.026225636 0.094881326 4278190080 8799
0.19368134 0.016585482 0.090099901 4278190080 8664
0.18595126 0.022820706 0.09611892 4278190080 8678
0.19341141 0.020903168 0.079825856 4278190080 9061
0.18418667 0.029205246 0.093015641 4278190080 8998
0.18919127 0.031674597 0.083653927 4278190080 14876
0.18510722 0.032041118 0.087565519 4278190080 9302
0.18444756 0.031324849 0.089996271 4278190080 9197
0.18500911 0.02530504 0.095681861 4278190080 8790
0.19259612 0.023601454 0.078879736 4278190080 15891
0.19035186 0.03099243 0.082640618 4278190080 15144
0.18435003 0.03036095 0.09183801 4278190080 9082
0.18422832 0.030638289 0.091303542 4278190080 9116
0.18642075 0.031657513 0.083308861 4278190080 9435
0.18489729 0.028799193 0.093896307 4278190080 8981
0.18888541 0.0321116 0.084404901 4278190080 14788
0.18764864 0.02045936 0.096124001 4278190080 8626
0.18475845 0.032061074 0.086060785 4278190080 9330
0.18442789 0.031391036 0.090151183 4278190080 9185
0.18699719 0.021250982 0.096299544 4278190080 8615
0.1842774 0.027748935 0.094521679 4278190080 8895
0.18588971 0.032209933 0.084935471 4278190080 9405
0.18514784 0.032126337 0.085387036 4278190080 9327
0.19471407 0.01802847 0.082684048 4278190080 8893
0.18557087 0.032106414 0.084640212 4278190080 9389
0.19039786 0.031255867 0.082770348 4278190080 15167
0.18422571 0.031948898 0.087837517 4278190080 9240
0.18986909 0.031771783 0.083548963 4278190080 14976
0.18490289 0.028860347 0.094074294 4278190080 8973
0.18714046 0.032111041 0.083769105 4278190080 14783
0.19110514 0.027694475 0.079205766 4278190080 16107
0.18892491 0.030502494 0.080963731 4278190080 15372
0.18512745 0.02768337 0.094979599 4278190080 8905
0.18597288 0.024390277 0.09633451 4278190080 8747
0.18576239 0.023014845 0.096413665 4278190080 8685
0.18601914 0.031979971 0.083665907 4278190080 9442
0.18448539 0.02757993 0.094848767 4278190080 8859
0.18589859 0.023989329 0.096411355 4278190080 8742
0.19463873 0.016269213 0.086027414 4278190080 8736
0.18723537 0.021788517 0.096593849 4278190080 8658
0.19084468 0.028052446 0.079183951 4278190080 16095
0.18441649 0.031756751 0.089807272 4278190080 9230
0.19184044 0.029494034 0.080898724 4278190080 15693
0.18539658 0.028035786 0.095020972 4278190080 8937
0.18486178 0.029369211 0.093838364 4278190080 9013
0.18464409 0.03230533 0.086127982 4278190080 9337
0.18706866 0.032402441 0.084106952 4278190080 14699
0.19452606 0.024154274 0.079952769 4278190080 16186
0.18895487 0.030677462 0.080894135 4278190080 15441
0.18564478 0.032528892 0.085486449 4278190080 9407
0.18427013 0.031653911 0.090198979 4278190080 9183
0.19153702 0.030754913 0.082207762 4278190080 15323
0.18599418 0.032189202 0.083759405 4278190080 9454
0.19366835 0.016540065 0.091357395 4278190080 8649
0.18496951 0.027962742 0.095030554 4278190080 8903
0.19459544 0.016036846 0.088078372 4278190080 8683
0.18488489 0.032452568 0.085937791 4278190080 9349
0.19468282 0.016637644 0.08398997 4278190080 8778
0.18464376 0.029167872 0.094079986 4278190080 8974
0.18736854 0.020762058 0.0965885 4278190080 8603
0.18768743 0.032728493 0.084919296 4278190080 14518
0.18401247 0.03089332 0.091717727 4278190080 9110
0.19462748 0.015953274 0.087881893 4278190080 8684
0.18506277 0.0286365 0.094703943 4278190080 8964
0.19471565 0.018675523 0.081358343 4278190080 8967
0.18423183 0.031726163 0.090346314 4278190080 9178
0.1842608 0.031230574 0.091441587 4278190080 9129
0.1913155 0.030182764 0.080982797 4278190080 15515
0.19244973 0.021026859 0.078336805 4278190080 21747
0.19465862 0.015780471 0.086768627 4278190080 8695
0.18395913 0.032185573 0.088591143 4278190080 9257
0.18951023 0.032282386 0.083497688 4278190080 14905
0.1836144 0.026602723 0.095413134 4278190080 8797
0.18435574 0.029872458 0.093508869 4278190080 9029
0.18474053 0.032619689 0.086207606 4278190080 9336
0.18411782 0.030683633 0.092417747 4278190080 9104
0.18404002 0.032335266 0.088195816 4278190080 9252
0.19367108 0.026950926 0.079808451 4278190080 16158
0.19355556 0.016061343 0.091344155 4278190080 8627
0.19469132 0.015808795 0.08817669 4278190080 8672
0.18547802 0.023481274 0.096794546 4278190080 8677
0.19173977 0.017523581 0.094410256 4278190080 8593
0.19164889 0.029095437 0.079873115 4278190080 15958
0.19396268 0.025148071 0.079262748 4278190080 16533
0.19124338 0.031753115 0.083227962 4278190080 15038
0.18505 0.032752044 0.085727409 4278190080 9392
0.18516916 0.028235042 0.095272668 4278190080 8950
0.18419808 0.031218771 0.091804326 4278190080 9138
0.19102955 0.028278599 0.078897193 4278190080 16066
0.18401931 0.030620465 0.092599802 4278190080 9099
0.1853697 0.032675434 0.084717333 4278190080 9453
0.1907219 0.029601121 0.07971894 4278190080 15846
0.18954517 0.031083696 0.080924295 4278190080 15373
0.19504122 0.015978301 0.085739911 4278190080 8733
0.18380609 0.029637991 0.093712181 4278190080 9004
0.18997103 0.031575311 0.081785642 4278190080 15239
0.18464616 0.032700945 0.088306636 4278190080 9312
0.18454069 0.032649577 0.088481754 4278190080 9313
0.19018237 0.030410081 0.080254734 4278190080 15631
0.19410078 0.025306733 0.079231985 4278190080 16526
0.19550757 0.016428988 0.085812151 4278190080 8771
0.18944319 0.032562014 0.083569601 4278190080 14860
0.18541424 0.032744501 0.084522493 4278190080 9428
0.18422069 0.031969588 0.090592705 4278190080 9215
0.18426661 0.032224957 0.089965709 4278190080 9214
0.18419082 0.031282283 0.091968141 4278190080 9131
0.190759 0.01818697 0.095503189 4278190080 8600
0.1915191 0.030609876 0.081100911 4278190080 15508
0.19211705 0.02999665 0.080762602 4278190080 15679
0.18376014 0.03237037 0.088836275 4278190080 9244
0.18489914 0.032919999 0.085990325 4278190080 9398
0.18447353 0.027502354 0.095666632 4278190080 8892
0.19163965 0.030482559 0.080961578 4278190080 15528
0.18846442 0.033155095 0.085015096 4278190080 14605
0.19147563 0.017306563 0.094702065 4278190080 8584
0.19186421 0.029130684 0.079688005 4278190080 15955
0.18378863 0.027293557 0.095526986 4278190080 8842
0.19356255 0.016011959 0.091830626 4278190080 8641
0.19527313 0.017489068 0.082504183 4278190080 8875
0.18401717 0.031593755 0.091443695 4278190080 9166
0.19502148 0.016644735 0.08323472 4278190080 8804
0.19417161 0.015587628 0.090243056 4278190080 8629
0.19186576 0.031236915 0.082106739 4278190080 15361
0.18967964 0.032674834 0.083605736 4278190080 14892
0.18983945 0.031006321 0.080595501 4278190080 15384
0.19202194 0.02324412 0.077426314 4278190080 21792
0.19475459 0.024794053 0.079444572 4278190080 16632
