# .PCD v0.7 - Point Cloud Data file format
VERSION 0.7
FIELDS x y z rgb
SIZE 4 4 4 4
TYPE F F F U
COUNT 1 1 1 1
WIDTH 159
HEIGHT 1
VIEWPOINT 0 0 0 1 0 0 0
POINTS 159
DATA ascii
-0.067646548 -0.16785409 -0.015838552 4278190080
-0.067646548 -0.1678541 -0.015838627 4278190080
-0.058707096 -0.16710217 -0.016257305 4278190080
-0.058707174 -0.16710213 -0.016257316 4278190080
-0.070414312 -0.16993073 -0.014695745 4278190080
-0.056275617 -0.16890861 -0.011659484 4278190080
-0.056275617 -0.16890861 -0.011659551 4278190080
-0.053948585 -0.17133082 -0.0082849078 4278190080
-0.0561102 -0.168275 -0.012965158 4278190080
-0.06471058 -0.16778062 -0.015720483 4278190080
-0.053718813 -0.17037153 -0.0093467794 4278190080
-0.061698921 -0.16739661 -0.016004704 4278190080
-0.067017563 -0.16789693 -0.015563566 4278190080
-0.067017719 -0.1678969 -0.015563559 4278190080
-0.067751117 -0.16829437 -0.015390426 4278190080
-0.05343144 -0.16916238 -0.0105859 4278190080
-0.05343144 -0.16916239 -0.010585967 4278190080
-0.05679626 -0.17110062 -0.0094274171 4278190080
-0.061954886 -0.16833931 -0.01362611 4278190080
-0.061954886 -0.16833933 -0.013626184 4278190080
-0.068175472 -0.1701019 -0.013769705 4278190080
-0.059147269 -0.1687732 -0.012640603 4278190080
-0.059147339 -0.16877313 -0.012640625 4278190080
-0.059120812 -0.16866113 -0.012751546 4278190080
-0.059120812 -0.16866115 -0.01275162 4278190080
-0.05912073 -0.16866116 -0.012751568 4278190080
-0.05912073 -0.16866118 -0.012751643 4278190080
-0.058958471 -0.1686735 -0.012684274 4278190080
-0.058958292 -0.16867352 -0.012684274 4278190080
-0.055702858 -0.17118201 -0.0089689307 4278190080
-0.064799652 -0.16808954 -0.014711391 4278190080
-0.064799652 -0.16808955 -0.014711451 4278190080
-0.07082428 -0.17260545 -0.0137605 4278190080
-0.055071421 -0.17626432 -0.0054277107 4278190080
-0.054506935 -0.17377691 -0.0067958385 4278190080
-0.062479116 -0.1705555 -0.011464778 4278190080
-0.063479535 -0.17046605 -0.011841845 4278190080
-0.068766914 -0.17277092 -0.012932673 4278190080
-0.065327406 -0.17032951 -0.012619589 4278190080
-0.057370059 -0.1736508 -0.0082428008 4278190080
-0.059646219 -0.17088525 -0.0106134 4278190080
-0.059646137 -0.17088528 -0.01061343 4278190080
-0.056955375 -0.17367594 -0.0080527067 4278190080
-0.062320895 -0.16988477 -0.012099411 4278190080
-0.071240321 -0.17527883 -0.012825392 4278190080
-0.064989887 -0.17566732 -0.009986937 4278190080
-0.066498786 -0.17559001 -0.010718822 4278190080
-0.060788874 -0.17595229 -0.0081467628 4278190080
-0.060788795 -0.17595232 -0.0081467852 4278190080
-0.063051842 -0.17309842 -0.010258898 4278190080
-0.064517453 -0.17300603 -0.01092077 4278190080
-0.058982521 -0.1787663 -0.0062094629 4278190080
-0.07049945 -0.18049642 -0.0095982477 4278190080
-0.069942236 -0.17805804 -0.011109799 4278190080
-0.058517523 -0.1787502 -0.0058708787 4278190080
-0.065912381 -0.17295493 -0.011655033 4278190080
-0.058261 -0.17615844 -0.0071376786 4278190080
-0.060220446 -0.17343831 -0.0094371736 4278190080
-0.060220364 -0.17343833 -0.009437196 4278190080
-0.069356002 -0.17542408 -0.012049355 4278190080
-0.057939813 -0.17617369 -0.0069784522 4278190080
-0.057712361 -0.17516872 -0.0075039044 4278190080
-0.064241879 -0.17848466 -0.0087259486 4278190080
-0.064931139 -0.17844258 -0.0090411082 4278190080
-0.058574431 -0.17842865 -0.00029952824 4278190080
-0.061389528 -0.17868337 -0.007491298 4278190080
-0.061389446 -0.1786834 -0.0074913278 4278190080
-0.058623984 -0.17895873 -0.0031388253 4278190080
-0.058623984 -0.17895874 -0.0031388476 4278190080
-0.067092851 -0.17827675 -0.0099336281 4278190080
-0.058554903 -0.17803353 0.0025874451 4278190080
-0.063639715 -0.17574342 -0.0093516782 4278190080
-0.07100305 -0.18257359 -0.0070302412 4278190080
-0.067694739 -0.18088582 -0.0080654696 4278190080
-0.07097131 -0.18246046 -0.007360734 4278190080
-0.06729652 -0.18069771 -0.0081500039 4278190080
-0.071319118 -0.18259723 -0.0072963163 4278190080
-0.067644387 -0.18067691 -0.0083102956 4278190080
-0.061577827 -0.17938982 -0.0058644935 4278190080
-0.061577752 -0.17938986 -0.0058644861 4278190080
-0.067161635 -0.1824412 0.004531417 4278190080
-0.067161575 -0.18244119 0.0045314133 4278190080
-0.067959547 -0.1832227 0.0018160567 4278190080
-0.067959495 -0.18322268 0.0018160492 4278190080
-0.065812185 -0.18092079 0.00092003495 4278190080
-0.064922951 -0.1804418 0.0028365143 4278190080
-0.068535462 -0.18374248 0.0020230114 4278190080
-0.064974114 -0.1805805 0.0037841909 4278190080
-0.068447404 -0.18345559 0.00084930658 4278190080
-0.068447396 -0.18345559 0.00084919482 4278190080
-0.064622074 -0.18022346 0.0036442503 4278190080
-0.064783446 -0.18003085 0.00056354702 4278190080
-0.068681963 -0.18409359 0.0051735416 4278190080
-0.06822399 -0.18264988 -0.0013893843 4278190080
-0.068223976 -0.18264984 -0.0013894215 4278190080
-0.06712307 -0.1815922 -0.0018068925 4278190080
-0.067123108 -0.1815922 -0.0018069148 4278190080
-0.066124909 -0.18171097 0.0072521679 4278190080
-0.066124856 -0.18171096 0.0072521642 4278190080
-0.069433317 -0.18385912 -0.00091455132 4278190080
-0.069433384 -0.18385914 -0.00091454387 4278190080
-0.069433354 -0.18385912 -0.00091457367 4278190080
-0.069433421 -0.18385914 -0.00091456622 4278190080
-0.069286317 -0.18474796 0.0054279529 4278190080
-0.065099746 -0.18083781 0.0069015957 4278190080
-0.070864648 -0.18536198 0.0026949719 4278190080
-0.068792447 -0.18446457 0.0065414906 4278190080
-0.063580625 -0.17863697 2.5913119e-05 4278190080
-0.06375137 -0.1794576 0.0063612536 4278190080
-0.06281893 -0.17784771 0.0027404577 4278190080
-0.071847245 -0.18562979 0.0013176203 4278190080
-0.068034858 -0.18199186 -0.0035129413 4278190080
-0.064649157 -0.17973462 -0.0025675818 4278190080
-0.06464915 -0.17973462 -0.0025676191 4278190080
-0.068083741 -0.1840533 0.0081524476 4278190080
-0.071744181 -0.18531948 -0.00029794872 4278190080
-0.071744189 -0.18531953 -0.00029791147 4278190080
-0.064277507 -0.17944013 -0.0026871711 4278190080
-0.064277485 -0.17944013 -0.0026871487 4278190080
-0.072022021 -0.18626091 0.0030610785 4278190080
-0.065242663 -0.18128006 0.0090279989 4278190080
-0.065242663 -0.18128008 0.0090280809 4278190080
-0.064615205 -0.17968418 -0.0035909116 4278190080
-0.061425842 -0.17778465 0.0026481599 4278190080
-0.061425764 -0.17778468 0.0026481599 4278190080
-0.0685708 -0.18223424 -0.0045369193 4278190080
-0.067970045 -0.18181585 -0.0047104731 4278190080
-0.07296396 -0.18586421 -4.9747527e-05 4278190080
-0.072964005 -0.18586421 -4.9769878e-05 4278190080
-0.061406277 -0.17748046 0.0046703443 4278190080
-0.061406203 -0.1774805 0.0046702623 4278190080
-0.061519891 -0.1785147 -0.00012053549 4278190080
-0.061519809 -0.17851473 -0.00012052804 4278190080
-0.061505876 -0.17783701 0.0056931749 4278190080
-0.061505809 -0.1778371 0.0056931973 4278190080
-0.069056027 -0.1854675 0.0086852983 4278190080
-0.071462303 -0.184352 -0.003588371 4278190080
-0.071462296 -0.18435201 -0.0035884753 4278190080
-0.064832866 -0.18103552 0.0099786855 4278190080
-0.064832829 -0.18103549 0.0099786781 4278190080
-0.071453132 -0.18431869 -0.0036779195 4278190080
-0.071520969 -0.18436386 -0.0036590248 4278190080
-0.071521051 -0.18436387 -0.0036590248 4278190080
-0.07134527 -0.18706883 0.0063259713 4278190080
-0.065395489 -0.18185966 0.010289017 4278190080
-0.072288364 -0.18728599 0.005116906 4278190080
-0.062575996 -0.1787571 0.0090851337 4278190080
-0.065365255 -0.18015942 -0.0054090545 4278190080
-0.066534631 -0.18343301 0.010884766 4278190080
-0.073684379 -0.18751961 0.0035758168 4278190080
-0.069674157 -0.18647471 0.0090610422 4278190080
-0.061609089 -0.17922296 -0.0028968975 4278190080
-0.061609082 -0.17922296 -0.0028969273 4278190080
-0.061609015 -0.17922303 -0.00289689 4278190080
-0.061609007 -0.17922302 -0.0028969124 4278190080
-0.064644784 -0.18002233 -0.005492501 4278190080
-0.061737627 -0.17857128 0.00897903 4278190080
-0.061737549 -0.17857133 0.0089790374 4278190080
-0.069259197 -0.18629348 0.0098356158 4278190080
