# .PCD v0.7 - Point Cloud Data file format
VERSION 0.7
FIELDS x y z rgb
SIZE 4 4 4 4
TYPE F F F U
COUNT 1 1 1 1
WIDTH 139
HEIGHT 1
VIEWPOINT 0 0 0 1 0 0 0
POINTS 139
DATA ascii
0.071805604 -0.12108716 -0.01286878 4278190080
0.073417865 -0.11594117 -0.013076654 4278190080
0.073605485 -0.11541533 -0.013097859 4278190080
0.0736055 -0.11541531 -0.01309786 4278190080
0.071049854 -0.12118755 -0.015725318 4278190080
0.06923753 -0.12412046 -0.018467709 4278190080
0.067529798 -0.12491184 -0.021297529 4278190080
0.073507443 -0.11212975 -0.016091827 4278190080
0.073494762 -0.1126515 -0.015511356 4278190080
0.072572134 -0.11824836 -0.012983654 4278190080
0.070392437 -0.12403039 -0.015652254 4278190080
0.070408031 -0.12402901 -0.015610134 4278190080
0.073429994 -0.11542857 -0.01351521 4278190080
0.073429994 -0.1154286 -0.013515179 4278190080
0.070390746 -0.1241038 -0.015607103 4278190080
0.073410295 -0.10993385 -0.019041223 4278190080
0.073271766 -0.11266951 -0.016070131 4278190080
0.070521012 -0.11845203 -0.01905348 4278190080
0.071243688 -0.1155978 -0.018813059 4278190080
0.071243718 -0.11559778 -0.018813061 4278190080
0.070653021 -0.11844034 -0.018697748 4278190080
0.070501871 -0.11929588 -0.018663 4278190080
0.072312094 -0.11276551 -0.018927177 4278190080
0.070068195 -0.12128306 -0.018582422 4278190080
0.072697163 -0.11003515 -0.021897659 4278190080
0.070457116 -0.12125103 -0.017592803 4278190080
0.072375007 -0.1155055 -0.015955582 4278190080
0.072375037 -0.11550548 -0.015955584 4278190080
0.067545965 -0.12422043 -0.021809246 4278190080
0.071657732 -0.11834533 -0.015840588 4278190080
0.06778118 -0.12420577 -0.021326002 4278190080
0.070585467 -0.11566701 -0.020855691 4278190080
0.070585467 -0.11566703 -0.020855621 4278190080
0.071179323 -0.11023577 -0.027610755 4278190080
0.071179338 -0.11023577 -0.027610736 4278190080
0.071416505 -0.11286288 -0.021784069 4278190080
0.070736043 -0.10979268 -0.030488994 4278190080
0.071913965 -0.11013494 -0.024754263 4278190080
0.070652783 -0.11295395 -0.024417011 4278190080
0.069499135 -0.11853216 -0.021555286 4278190080
0.070315294 -0.11569446 -0.021670032 4278190080
0.070315324 -0.11569444 -0.021670034 4278190080
0.066450976 -0.12429379 -0.024183976 4278190080
0.070601799 -0.11500592 -0.021697734 4278190080
0.064681903 -0.125117 -0.02701259 4278190080
0.064681903 -0.12511708 -0.02701257 4278190080
0.068690851 -0.12137007 -0.021440517 4278190080
0.068352021 -0.11862412 -0.0244128 4278190080
0.069341317 -0.11579014 -0.024527118 4278190080
0.069341347 -0.11579013 -0.024527118 4278190080
0.067625105 -0.12083574 -0.024323516 4278190080
0.067436017 -0.12145971 -0.024298303 4278190080
0.064699128 -0.12440109 -0.02773696 4278190080
0.067610845 -0.12144609 -0.023872431 4278190080
0.065003686 -0.12437928 -0.027042245 4278190080
0.065003715 -0.12437928 -0.027042227 4278190080
0.070699334 -0.11115863 -0.027573764 4278190080
0.070699334 -0.11115858 -0.027573783 4278190080
0.070466124 -0.11033706 -0.030467166 4278190080
0.070722438 -0.11029955 -0.029413445 4278190080
0.070585914 -0.11296164 -0.024640793 4278190080
0.070656449 -0.1128104 -0.024646865 4278190080
0.064765453 -0.12166315 -0.030690152 4278190080
0.065024495 -0.1216411 -0.03001361 4278190080
0.064750567 -0.12227298 -0.029988211 4278190080
0.067698367 -0.11777927 -0.027307842 4278190080
0.067698367 -0.11777933 -0.02730782 4278190080
0.067334346 -0.11871886 -0.027269997 4278190080
0.067334361 -0.11871886 -0.027269978 4278190080
0.068341516 -0.11588527 -0.02738427 4278190080
0.068341531 -0.11588525 -0.02738427 4278190080
0.068341531 -0.11588527 -0.027384251 4278190080
0.068341546 -0.11588525 -0.027384251 4278190080
0.067676276 -0.11868578 -0.026279412 4278190080
0.066261508 -0.12155107 -0.027155887 4278190080
0.066261537 -0.12155107 -0.027155869 4278190080
0.069737777 -0.11306003 -0.027497565 4278190080
0.069737807 -0.11306003 -0.027497547 4278190080
0.062543787 -0.12455964 -0.032757677 4278190080
0.063762568 -0.12446922 -0.029899979 4278190080
0.070761316 -0.10895558 -0.033382617 4278190080
0.069910996 -0.11044176 -0.033323206 4278190080
0.067750938 -0.11567967 -0.030253038 4278190080
0.06759876 -0.11598593 -0.030240756 4278190080
0.06759879 -0.11598591 -0.030240756 4278190080
0.069045596 -0.11316178 -0.030353928 4278190080
0.067743354 -0.11596658 -0.029691279 4278190080
0.067743354 -0.1159666 -0.029691186 4278190080
0.066239968 -0.11881196 -0.030127361 4278190080
0.063882612 -0.12173317 -0.03287112 4278190080
0.065390095 -0.1162883 -0.038810227 4278190080
0.065390065 -0.11628833 -0.038810227 4278190080
0.064904645 -0.11635149 -0.040612999 4278190080
0.064904645 -0.11635148 -0.040613148 4278190080
0.066962741 -0.11346688 -0.038923085 4278190080
0.064884067 -0.11709418 -0.038778085 4278190080
0.064917743 -0.11586824 -0.0416876 4278190080
0.06460923 -0.11638814 -0.041666832 4278190080
0.06460917 -0.11638816 -0.041666832 4278190080
0.066318385 -0.11356965 -0.041779347 4278190080
0.066131175 -0.11618763 -0.035953727 4278190080
0.066131219 -0.11618761 -0.035953727 4278190080
0.067853443 -0.11193409 -0.03898434 4278190080
0.067658253 -0.11336521 -0.036066696 4278190080
0.067821823 -0.11306451 -0.036078732 4278190080
0.06356962 -0.11910442 -0.038697988 4278190080
0.064852744 -0.11821069 -0.035873048 4278190080
0.067814291 -0.1133443 -0.035472408 4278190080
0.067878827 -0.11109204 -0.041878164 4278190080
0.064948775 -0.11476468 -0.044592109 4278190080
0.06859269 -0.11064667 -0.039035797 4278190080
0.062899612 -0.11920664 -0.041554317 4278190080
0.064316064 -0.11900384 -0.035841472 4278190080
0.065678619 -0.11367253 -0.044635594 4278190080
0.068083405 -0.11075235 -0.041891724 4278190080
0.06385532 -0.11648856 -0.044523366 4278190080
0.063855276 -0.11648858 -0.044523366 4278190080
0.067888074 -0.11079369 -0.0430068 4278190080
0.066917934 -0.11608792 -0.033097111 4278190080
0.066917963 -0.1160879 -0.033097111 4278190080
0.064832456 -0.11894226 -0.034061231 4278190080
0.06922546 -0.11054365 -0.036179569 4278190080
0.067786358 -0.11437311 -0.033165846 4278190080
0.068403341 -0.1132646 -0.033210188 4278190080
0.067577183 -0.1108581 -0.044747639 4278190080
0.062190004 -0.11930801 -0.044410739 4278190080
0.061945379 -0.12116605 -0.041475721 4278190080
0.065210298 -0.11890644 -0.032984588 4278190080
0.067901254 -0.11038649 -0.044766407 4278190080
0.062244795 -0.12193121 -0.038584512 4278190080
0.061983392 -0.11973958 -0.044393424 4278190080
0.061923772 -0.1219736 -0.039791904 4278190080
0.06481304 -0.11971514 -0.032952156 4278190080
0.06306576 -0.12183224 -0.03572781 4278190080
0.061994225 -0.11933913 -0.045275845 4278190080
0.064974494 -0.11390716 -0.047486566 4278190080
0.064974487 -0.11390718 -0.047486637 4278190080
0.065072358 -0.11377613 -0.047491767 4278190080
0.065072373 -0.11377613 -0.047491841 4278190080
