# .PCD v0.7 - Point Cloud Data file format
VERSION 0.7
FIELDS x y z rgb
SIZE 4 4 4 4
TYPE F F F U
COUNT 1 1 1 1
WIDTH 162
HEIGHT 1
VIEWPOINT 0 0 0 1 0 0 0
POINTS 162
DATA ascii
0.068425268 -0.17335369 0.010839946 4278190080
0.070637055 -0.17511082 0.010942284 4278190080
0.071287557 -0.1754148 0.01095916 4278190080
0.074165493 -0.17621677 0.016725464 4278190080
0.07129772 -0.17571662 0.013840578 4278190080
0.077029437 -0.17453307 0.019978881 4278190080
0.07702893 -0.17498986 0.019503057 4278190080
0.077026874 -0.17159019 0.021269448 4278190080
0.077025846 -0.17002289 0.022057103 4278190080
0.074156813 -0.17650488 0.013880707 4278190080
0.077023752 -0.17666972 0.016744761 4278190080
0.07702478 -0.16863827 0.022706022 4278190080
0.074037813 -0.17154248 0.02216078 4278190080
0.07417246 -0.17154397 0.022131437 4278190080
0.074172445 -0.17150065 0.022157762 4278190080
0.074170001 -0.16859923 0.023452288 4278190080
0.074172683 -0.17453305 0.020097028 4278190080
0.071306936 -0.17564021 0.016698489 4278190080
0.074171968 -0.17504844 0.01951554 4278190080
0.065574929 -0.17208351 0.013800748 4278190080
0.065574944 -0.17208353 0.013800607 4278190080
0.065653019 -0.17209373 0.013632932 4278190080
0.065574192 -0.17200424 0.013627614 4278190080
0.065574177 -0.17200416 0.013627609 4278190080
0.068436824 -0.17420931 0.013755772 4278190080
0.074167974 -0.16598074 0.024677448 4278190080
0.074167974 -0.16598067 0.024677459 4278190080
0.069437034 -0.1749365 0.013797862 4278190080
0.074167959 -0.1656462 0.024906605 4278190080
0.070375189 -0.17457998 0.019498188 4278190080
0.07131438 -0.17456375 0.019720633 4278190080
0.071314134 -0.17476243 0.019506617 4278190080
0.068447016 -0.17452243 0.016637884 4278190080
0.068821318 -0.1747608 0.016651539 4278190080
0.071318023 -0.16509099 0.027493671 4278190080
0.068460084 -0.17152165 0.022726227 4278190080
0.06845957 -0.17203522 0.022208668 4278190080
0.065595455 -0.17298272 0.019413734 4278190080
0.06559547 -0.17298275 0.019413736 4278190080
0.062722288 -0.17033023 0.016395111 4278190080
0.071317784 -0.16873328 0.024857312 4278190080
0.071317784 -0.16873318 0.024857322 4278190080
0.071317814 -0.16850878 0.025025779 4278190080
0.061382867 -0.169075 0.016321259 4278190080
0.064206898 -0.17192 0.016489301 4278190080
0.071612261 -0.16851938 0.024843125 4278190080
0.071612395 -0.16851938 0.024843108 4278190080
0.068454951 -0.17393684 0.019464169 4278190080
0.071317084 -0.17151666 0.022688748 4278190080
0.070636205 -0.16549285 0.027520753 4278190080
0.071316712 -0.17204738 0.022200579 4278190080
0.059857689 -0.16734757 0.016218638 4278190080
0.065585665 -0.17283018 0.016541589 4278190080
0.06558568 -0.17283022 0.016541593 4278190080
0.068466112 -0.1634146 0.030261025 4278190080
0.071317494 -0.16552186 0.027025774 4278190080
0.064929567 -0.171564 0.022190318 4278190080
0.065601893 -0.17155029 0.022383161 4278190080
0.065601908 -0.17155029 0.022383183 4278190080
0.062733904 -0.17120925 0.019312391 4278190080
0.065601759 -0.17175092 0.022199851 4278190080
0.065601774 -0.17175093 0.022199852 4278190080
0.063255459 -0.17174509 0.019344073 4278190080
0.068464175 -0.16638614 0.027582986 4278190080
0.068462133 -0.16848774 0.025482282 4278190080
0.068462007 -0.16926238 0.024899047 4278190080
0.068462007 -0.16926244 0.024899036 4278190080
0.068464309 -0.16545136 0.028278288 4278190080
0.05986971 -0.16838907 0.019146014 4278190080
0.062741593 -0.17052899 0.022132777 4278190080
0.060310189 -0.16890037 0.019176424 4278190080
0.065605342 -0.16848882 0.02558291 4278190080
0.065605357 -0.16848882 0.02558291 4278190080
0.065605164 -0.16936466 0.024914248 4278190080
0.065605178 -0.16936466 0.024914248 4278190080
0.065605164 -0.16936472 0.024914235 4278190080
0.065605178 -0.16936472 0.024914235 4278190080
0.065610223 -0.16240525 0.031348459 4278190080
0.065610237 -0.16240525 0.031348467 4278190080
0.055231757 -0.16267754 0.027393505 4278190080
0.056692958 -0.16552578 0.027565971 4278190080
0.057029482 -0.16261359 0.028348848 4278190080
0.057033986 -0.16551802 0.027676802 4278190080
0.057033949 -0.16564965 0.027572613 4278190080
0.054166116 -0.16138583 0.02731654 4278190080
0.056423664 -0.16570356 0.024715178 4278190080
0.056423675 -0.16570356 0.024715163 4278190080
0.054603681 -0.16285616 0.024543878 4278190080
0.054603692 -0.16285616 0.024543863 4278190080
0.057026256 -0.1663305 0.02475227 4278190080
0.057026252 -0.16633049 0.024752254 4278190080
0.05415868 -0.16216871 0.024502538 4278190080
0.054158676 -0.1621687 0.024502523 4278190080
0.057030033 -0.16035162 0.030106105 4278190080
0.059892468 -0.16548347 0.028114963 4278190080
0.059892245 -0.1661287 0.027593529 4278190080
0.054171342 -0.1597243 0.030075973 4278190080
0.059892334 -0.16249263 0.03017772 4278190080
0.054171428 -0.15964584 0.030157834 4278190080
0.054171428 -0.15964578 0.030157749 4278190080
0.059892301 -0.16241045 0.030225173 4278190080
0.059975244 -0.16248918 0.030229811 4278190080
0.053653833 -0.15965237 0.030073106 4278190080
0.053653281 -0.15965243 0.03007311 4278190080
0.057029657 -0.15961669 0.030509109 4278190080
0.057029657 -0.15961663 0.030509038 4278190080
0.052251071 -0.15983289 0.027225971 4278190080
0.05225113 -0.15983284 0.027225967 4278190080
0.052429579 -0.16000962 0.024373714 4278190080
0.052429538 -0.16000962 0.024373729 4278190080
0.052429598 -0.16000956 0.024373725 4278190080
0.052429609 -0.16000956 0.02437371 4278190080
0.057016492 -0.16586396 0.022108864 4278190080
0.05533845 -0.16303158 0.021689817 4278190080
0.057015494 -0.16579178 0.02185614 4278190080
0.057070013 -0.16587919 0.021861404 4278190080
0.059521195 -0.16854793 0.02488232 4278190080
0.059521303 -0.16854793 0.024882333 4278190080
0.059888829 -0.15956849 0.031167017 4278190080
0.059888829 -0.15956843 0.031166969 4278190080
0.059889182 -0.16854189 0.024964383 4278190080
0.059889201 -0.16865876 0.024888081 4278190080
0.059889197 -0.16865879 0.024888068 4278190080
0.051311541 -0.15865226 0.030018212 4278190080
0.054147288 -0.16138104 0.021590941 4278190080
0.062750474 -0.1654584 0.028400701 4278190080
0.062751159 -0.16311115 0.030259864 4278190080
0.062750079 -0.16642161 0.027602881 4278190080
0.062751934 -0.16243619 0.030968435 4278190080
0.057033002 -0.15779227 0.032809742 4278190080
0.054175805 -0.15775983 0.03281657 4278190080
0.053344548 -0.16018461 0.021519082 4278190080
0.053344563 -0.16018455 0.021519078 4278190080
0.051729053 -0.15698236 0.027050458 4278190080
0.051300664 -0.15692952 0.02791873 4278190080
0.052383494 -0.15715797 0.024196671 4278190080
0.052383505 -0.15715797 0.024196656 4278190080
0.059648015 -0.16872479 0.022030244 4278190080
0.059890449 -0.1579338 0.032809686 4278190080
0.059880361 -0.16888468 0.022039458 4278190080
0.062747434 -0.16851199 0.025327943 4278190080
0.051318645 -0.1577372 0.03282401 4278190080
0.054138873 -0.16028954 0.01979712 4278190080
0.054138873 -0.16028948 0.019797154 4278190080
0.062748417 -0.15951218 0.031955477 4278190080
0.062748417 -0.15951213 0.031955451 4278190080
0.062747352 -0.16907775 0.024905268 4278190080
0.062747352 -0.1690778 0.024905257 4278190080
0.049968414 -0.15680937 0.029907856 4278190080
0.057002489 -0.16435935 0.01890449 4278190080
0.056240294 -0.16320661 0.018835219 4278190080
0.059877139 -0.16878004 0.021131162 4278190080
0.057996422 -0.16605416 0.019006725 4278190080
0.053092945 -0.15733345 0.021342691 4278190080
0.065607913 -0.16544452 0.028506096 4278190080
0.065607928 -0.16544452 0.028506104 4278190080
0.054672062 -0.16035862 0.018663105 4278190080
0.054672092 -0.16035856 0.018663101 4278190080
0.06560909 -0.16344504 0.030271765 4278190080
0.065609105 -0.16344504 0.030271765 4278190080
0.065607488 -0.16654879 0.027601939 4278190080
0.065607503 -0.16654879 0.027601939 4278190080
