# .PCD v0.7 - Point Cloud Data file format
VERSION 0.7
FIELDS x y z rgb
SIZE 4 4 4 4
TYPE F F F U
COUNT 1 1 1 1
WIDTH 135
HEIGHT 1
VIEWPOINT 0 0 0 1 0 0 0
POINTS 135
DATA ascii
0.094537362 -0.22713752 0.094099224 4278190080
0.094538547 -0.22740254 0.094272956 4278190080
0.094384663 -0.22712815 0.094256386 4278190080
0.097391307 -0.22719309 0.093086913 4278190080
0.094536379 -0.2265415 0.094219461 4278190080
0.10024109 -0.22733049 0.090757586 4278190080
0.099533141 -0.22729315 0.091388017 4278190080
0.10026405 -0.23286343 0.093854859 4278190080
0.10309462 -0.22739427 0.089613244 4278190080
0.10026309 -0.23587589 0.091443419 4278190080
0.10026309 -0.2358759 0.091443494 4278190080
0.10025597 -0.23302335 0.091280796 4278190080
0.09999539 -0.23299544 0.091740921 4278190080
0.10007651 -0.23584689 0.091917858 4278190080
0.10007654 -0.23584692 0.091917858 4278190080
0.10026516 -0.23608066 0.091931798 4278190080
0.10026569 -0.23582445 0.092271656 4278190080
0.10026569 -0.23582442 0.092271745 4278190080
0.10024703 -0.23020661 0.090541184 4278190080
0.1030994 -0.2302932 0.089029565 4278190080
0.10379793 -0.2303119 0.088699713 4278190080
0.10379798 -0.2303119 0.088699698 4278190080
0.099605337 -0.23014465 0.091564983 4278190080
0.1031047 -0.23318179 0.088612713 4278190080
0.10307625 -0.23316531 0.08887925 4278190080
0.1030762 -0.23316531 0.088879265 4278190080
0.10310522 -0.23303474 0.088871047 4278190080
0.10310522 -0.23303454 0.088871047 4278190080
0.10312289 -0.24006565 0.089307882 4278190080
0.10312289 -0.2400656 0.089307897 4278190080
0.10239714 -0.2360186 0.089058645 4278190080
0.10239714 -0.23601857 0.089058645 4278190080
0.10239707 -0.23601858 0.08905866 4278190080
0.10239708 -0.23601855 0.08905866 4278190080
0.10379428 -0.24171865 0.089408517 4278190080
0.10379434 -0.24171865 0.089408532 4278190080
0.10312195 -0.24182114 0.087786496 4278190080
0.10309983 -0.23463646 0.086107925 4278190080
0.10880216 -0.23649189 0.081175528 4278190080
0.10880216 -0.23649186 0.081175581 4278190080
0.10368632 -0.24474774 0.086734414 4278190080
0.1059482 -0.23344377 0.084278263 4278190080
0.10594819 -0.23344377 0.084278308 4278190080
0.10262353 -0.23886973 0.08923512 4278190080
0.10262353 -0.23886973 0.089235134 4278190080
0.10349357 -0.23334147 0.086026236 4278190080
0.10310061 -0.23625615 0.085205592 4278190080
0.10310061 -0.23625611 0.085205652 4278190080
0.10312167 -0.24332014 0.086647451 4278190080
0.10594892 -0.23519006 0.083270803 4278190080
0.10594893 -0.23519002 0.083270803 4278190080
0.1026115 -0.23619524 0.086206295 4278190080
0.10261151 -0.23619521 0.086206295 4278190080
0.10228816 -0.23904766 0.08638455 4278190080
0.10265664 -0.24189849 0.086560547 4278190080
0.10310055 -0.23925067 0.083083138 4278190080
0.102824 -0.23922355 0.083531126 4278190080
0.10309981 -0.23836544 0.083476946 4278190080
0.10880412 -0.23944657 0.079694316 4278190080
0.10312025 -0.24484807 0.085142761 4278190080
0.10312071 -0.24667713 0.08399336 4278190080
0.10594928 -0.23641607 0.082513697 4278190080
0.10594926 -0.23641607 0.082513727 4278190080
0.10594928 -0.23641604 0.082513727 4278190080
0.10594926 -0.23641604 0.082513772 4278190080
0.10436903 -0.23636824 0.083348908 4278190080
0.10436909 -0.23636821 0.083348908 4278190080
0.10880294 -0.23771046 0.080555893 4278190080
0.10553407 -0.23939431 0.080670647 4278190080
0.10594926 -0.23940969 0.080405906 4278190080
0.10594925 -0.23940969 0.080405936 4278190080
0.10238077 -0.24207629 0.083709762 4278190080
0.10594925 -0.23906468 0.080648877 4278190080
0.10594926 -0.23906463 0.080648877 4278190080
0.10270207 -0.24492721 0.083885923 4278190080
0.10311908 -0.24786498 0.082660183 4278190080
0.10311835 -0.24947774 0.081304699 4278190080
0.10270612 -0.24510436 0.081034213 4278190080
0.10880291 -0.24246413 0.077201605 4278190080
0.10310175 -0.24288145 0.080894865 4278190080
0.10326183 -0.24225137 0.080855213 4278190080
0.10303689 -0.25098413 0.078535855 4278190080
0.10310118 -0.24223183 0.081176393 4278190080
0.1028109 -0.2479558 0.081211083 4278190080
0.10311334 -0.25123122 0.078550979 4278190080
0.10880298 -0.24146754 0.077926651 4278190080
0.10311446 -0.25094968 0.079087324 4278190080
0.10594853 -0.24252111 0.078000963 4278190080
0.10594855 -0.24252106 0.078000963 4278190080
0.1060988 -0.24242182 0.077994324 4278190080
0.10594854 -0.24241751 0.078069672 4278190080
0.10594852 -0.24241751 0.078069702 4278190080
0.10310263 -0.24519654 0.079533979 4278190080
0.11165752 -0.24792381 0.072593637 4278190080
0.10880224 -0.24547072 0.074885264 4278190080
0.10880249 -0.24501131 0.075284183 4278190080
0.10367809 -0.24527922 0.078179374 4278190080
0.10324881 -0.24813192 0.078357972 4278190080
0.10310916 -0.25105438 0.077402174 4278190080
0.10310935 -0.2496457 0.078452468 4278190080
0.10310727 -0.24809833 0.07890439 4278190080
0.10594972 -0.25047016 0.072769538 4278190080
0.10594971 -0.25047025 0.072769538 4278190080
0.1059486 -0.24840328 0.073878221 4278190080
0.10594858 -0.24840328 0.073878273 4278190080
0.10503989 -0.25133368 0.072826013 4278190080
0.10595032 -0.25136262 0.072322682 4278190080
0.1059503 -0.25136262 0.072322726 4278190080
0.10592142 -0.2489406 0.065229818 4278190080
0.10592141 -0.2489406 0.065229781 4278190080
0.10410675 -0.24830703 0.075503513 4278190080
0.10863779 -0.24847348 0.072637141 4278190080
0.10880169 -0.24847512 0.072604164 4278190080
0.10880165 -0.24841769 0.07263317 4278190080
0.10488396 -0.24901381 0.064094201 4278190080
0.10591306 -0.24611242 0.064674668 4278190080
0.10591304 -0.24611242 0.064674631 4278190080
0.10594805 -0.24607059 0.075358845 4278190080
0.10594807 -0.24607053 0.075358838 4278190080
0.10332437 -0.25116059 0.075683251 4278190080
0.10880427 -0.25141743 0.071322866 4278190080
0.1049628 -0.24616194 0.063916743 4278190080
0.10594804 -0.24542072 0.075807869 4278190080
0.10594802 -0.24542071 0.075807929 4278190080
0.10595302 -0.25430274 0.071075842 4278190080
0.105953 -0.25430274 0.071075916 4278190080
0.10427166 -0.25418717 0.073005706 4278190080
0.10709878 -0.24544829 0.075316608 4278190080
0.10877996 -0.24890471 0.065689668 4278190080
0.10592344 -0.25124413 0.064229578 4278190080
0.10592345 -0.25124428 0.064229585 4278190080
0.10305641 -0.24910401 0.062717676 4278190080
0.10877191 -0.24607034 0.065234199 4278190080
0.10632434 -0.25186211 0.064266734 4278190080
0.10304988 -0.2462395 0.062747076 4278190080
