# .PCD v0.7 - Point Cloud Data file format
VERSION 0.7
FIELDS x y z rgb
SIZE 4 4 4 4
TYPE F F F U
COUNT 1 1 1 1
WIDTH 190
HEIGHT 1
VIEWPOINT 0 0 0 1 0 0 0
POINTS 190
DATA ascii
-0.010079455 -0.15402973 -0.09246181 4278190080
-0.012935093 -0.15398954 -0.092989206 4278190080
-0.018031623 -0.14561236 -0.10065321 4278190080
-0.018427111 -0.14449564 -0.10069953 4278190080
-0.0072236964 -0.15407301 -0.092010632 4278190080
-0.015726242 -0.15116543 -0.095345609 4278190080
-0.015741428 -0.15179326 -0.094677843 4278190080
-0.015411355 -0.13705538 -0.099833861 4278190080
-0.015411354 -0.13705535 -0.099833861 4278190080
-0.01838992 -0.14273523 -0.10042487 4278190080
-0.012852014 -0.15033203 -0.094732933 4278190080
-0.015644019 -0.14761984 -0.097707808 4278190080
-0.012871522 -0.15118241 -0.094250858 4278190080
-0.015661556 -0.14838633 -0.097292632 4278190080
-0.014600972 -0.15116344 -0.094701767 4278190080
-0.016427383 -0.14838551 -0.09767776 4278190080
-0.009951707 -0.14843069 -0.095357373 4278190080
-0.012740022 -0.14548409 -0.097790465 4278190080
-0.012678176 -0.14282712 -0.099652007 4278190080
-0.012742838 -0.14560686 -0.09772063 4278190080
-0.012994857 -0.14560407 -0.097785972 4278190080
-0.012616001 -0.13998495 -0.10005674 4278190080
-0.0099733323 -0.14936689 -0.094767749 4278190080
-0.012555067 -0.13711165 -0.099699877 4278190080
-0.012555066 -0.13711162 -0.099699862 4278190080
-0.012807079 -0.14839719 -0.096048132 4278190080
-0.0071602259 -0.15126337 -0.093210779 4278190080
-0.015472795 -0.13991594 -0.099879302 4278190080
-0.015533874 -0.14278564 -0.10014763 4278190080
-0.010015948 -0.15122098 -0.093684077 4278190080
-0.012493772 -0.13424738 -0.099564463 4278190080
-0.015597004 -0.14560384 -0.099156782 4278190080
-0.0043045185 -0.15130529 -0.092725776 4278190080
-0.0069675907 -0.14289024 -0.098175846 4278190080
-0.0069773104 -0.14330631 -0.097870216 4278190080
-0.0070320778 -0.14567436 -0.096351683 4278190080
-0.004213328 -0.14731431 -0.094842374 4278190080
-0.0098229749 -0.14285636 -0.098856881 4278190080
-0.0098564262 -0.1442917 -0.097834572 4278190080
-0.0097595435 -0.1400457 -0.10003248 4278190080
-0.0096986759 -0.13717072 -0.099634908 4278190080
-0.0096986759 -0.13717075 -0.099634923 4278190080
-0.0042407652 -0.14850274 -0.094099335 4278190080
-0.0098874997 -0.14563951 -0.097009152 4278190080
-0.001385091 -0.14854421 -0.093603484 4278190080
-0.0013850761 -0.14854421 -0.093603469 4278190080
-0.0070956904 -0.14844969 -0.094800606 4278190080
-0.0070961406 -0.14846915 -0.094788052 4278190080
-0.0071520382 -0.14846843 -0.094799928 4278190080
-0.0096374415 -0.13430496 -0.099462338 4278190080
-0.0067201806 -0.13148919 -0.099003114 4278190080
0.0014699099 -0.14856845 -0.092686273 4278190080
-0.0013305161 -0.14615813 -0.094884999 4278190080
-0.0013305319 -0.14615817 -0.094884999 4278190080
-0.0056824363 -0.14290613 -0.097884484 4278190080
-0.0069036889 -0.14009142 -0.099640571 4278190080
-0.0041766055 -0.14571039 -0.095722586 4278190080
-0.0040941504 -0.14213404 -0.097913489 4278190080
-0.004112178 -0.14292479 -0.097510234 4278190080
0.0015342587 -0.14578083 -0.094425268 4278190080
-0.0002661855 -0.1457613 -0.094899505 4278190080
-0.0067809466 -0.13436674 -0.099463247 4278190080
-0.0068422221 -0.13723145 -0.099610396 4278190080
-0.006842223 -0.13723148 -0.099610411 4278190080
-0.0038029873 -0.12867165 -0.098500103 4278190080
0.004388758 -0.14579223 -0.093194008 4278190080
-0.0038010981 -0.12858005 -0.09846741 4278190080
-0.001321146 -0.14574608 -0.095085517 4278190080
-0.0013211609 -0.14574608 -0.095085531 4278190080
-0.0011302043 -0.13733044 -0.099011034 4278190080
-0.0011302048 -0.13733047 -0.099011034 4278190080
-0.0011302192 -0.13733044 -0.099011056 4278190080
-0.0011302197 -0.13733047 -0.099011056 4278190080
-0.00075943535 -0.14015676 -0.097988971 4278190080
-0.0011932 -0.14015202 -0.098102592 4278190080
-0.0011932148 -0.14015202 -0.098102607 4278190080
-0.0011976747 -0.1403459 -0.097981945 4278190080
-0.0011976903 -0.14034593 -0.097981937 4278190080
0.0044532968 -0.14300941 -0.095050044 4278190080
0.0045836298 -0.14301036 -0.095004179 4278190080
0.0044510555 -0.14310776 -0.095000409 4278190080
0.0015980599 -0.1429795 -0.095828347 4278190080
-0.0039248136 -0.13441935 -0.099239878 4278190080
0.0073071327 -0.14300454 -0.093420856 4278190080
-0.003985933 -0.13728799 -0.099482849 4278190080
-0.0039859335 -0.13728802 -0.099482857 4278190080
-0.0012571367 -0.14294998 -0.096616499 4278190080
-0.0012571516 -0.14294998 -0.096616514 4278190080
-0.0017375556 -0.12871459 -0.098458573 4278190080
-0.0038638976 -0.13154557 -0.098871723 4278190080
0.0015545993 -0.14489464 -0.094932012 4278190080
-0.004048178 -0.1401284 -0.099035032 4278190080
0.0017253242 -0.13736829 -0.098426782 4278190080
0.0017253237 -0.13736832 -0.098426782 4278190080
0.0017049655 -0.13827187 -0.098062076 4278190080
-0.0010076406 -0.13160129 -0.098724246 4278190080
-0.0010076555 -0.13160129 -0.098724246 4278190080
0.0019942673 -0.12455951 -0.095763057 4278190080
-0.0010690489 -0.13446271 -0.098790176 4278190080
-0.0010690638 -0.13446271 -0.098790191 4278190080
0.0016619831 -0.14018121 -0.097306326 4278190080
-0.00094860385 -0.1288261 -0.098452732 4278190080
-0.00094861782 -0.12882605 -0.098452732 4278190080
-0.00094658893 -0.12873091 -0.098439388 4278190080
-0.00094660383 -0.12873091 -0.098439395 4278190080
0.0045801187 -0.13738711 -0.097376861 4278190080
0.0045801178 -0.13738714 -0.097376853 4278190080
0.01022461 -0.14019397 -0.09308853 4278190080
0.0023854615 -0.13451387 -0.098214686 4278190080
0.0018481778 -0.13164641 -0.098317862 4278190080
0.0018428934 -0.13189255 -0.098322786 4278190080
0.0017684621 -0.13164531 -0.098333016 4278190080
0.0074244039 -0.14021619 -0.095113866 4278190080
0.0073714517 -0.14021619 -0.095141791 4278190080
0.0073700817 -0.1402763 -0.095111489 4278190080
0.011771584 -0.14019307 -0.092248343 4278190080
0.0017866993 -0.13450608 -0.098340705 4278190080
0.0028969089 -0.13738014 -0.098096624 4278190080
0.002896901 -0.13738017 -0.098096624 4278190080
0.013078336 -0.14018616 -0.091387577 4278190080
0.0019688625 -0.12587009 -0.096877582 4278190080
0.0045168381 -0.14020155 -0.096293934 4278190080
0.010474136 -0.12884606 -0.095215484 4278190080
0.013327864 -0.12883829 -0.093515523 4278190080
0.010411776 -0.13168359 -0.094696857 4278190080
0.0095810927 -0.12884147 -0.095575631 4278190080
0.013264972 -0.13166249 -0.092671126 4278190080
0.013373139 -0.1316617 -0.092594706 4278190080
0.0091819018 -0.13168816 -0.095459834 4278190080
0.013252124 -0.13224791 -0.092570923 4278190080
0.014441605 -0.1288294 -0.092708826 4278190080
0.010535602 -0.12598608 -0.095184423 4278190080
0.013389177 -0.12597448 -0.09339039 4278190080
0.0076194247 -0.12882927 -0.096314944 4278190080
0.0091225114 -0.12597635 -0.095693558 4278190080
0.014158494 -0.12596805 -0.092826322 4278190080
0.0075578298 -0.13168603 -0.09626662 4278190080
0.010349733 -0.13452908 -0.094373524 4278190080
0.012771034 -0.13450404 -0.092479423 4278190080
0.013202558 -0.13449867 -0.092119873 4278190080
0.016180759 -0.12880945 -0.091300584 4278190080
0.007680716 -0.12596492 -0.096176967 4278190080
0.0090592727 -0.13454083 -0.095343359 4278190080
0.0077020987 -0.12492014 -0.095739059 4278190080
0.016117239 -0.13161789 -0.090070613 4278190080
0.010596441 -0.1231104 -0.094769336 4278190080
0.0074962191 -0.13454236 -0.096208073 4278190080
0.016242046 -0.12594505 -0.091160901 4278190080
0.016553069 -0.13161348 -0.089732111 4278190080
0.013450978 -0.12312299 -0.09356726 4278190080
0.016083265 -0.13315003 -0.089670032 4278190080
0.014527263 -0.12312072 -0.092942193 4278190080
0.017536802 -0.12877935 -0.089846447 4278190080
0.0077403062 -0.12305792 -0.094995774 4278190080
0.0047646891 -0.12881155 -0.09739162 4278190080
0.015777992 -0.13445209 -0.089617267 4278190080
0.01028722 -0.13736272 -0.093760446 4278190080
0.010287219 -0.13736275 -0.093760431 4278190080
0.0047032358 -0.13167186 -0.097430058 4278190080
0.0048250882 -0.12592483 -0.096706286 4278190080
0.01256342 -0.13735482 -0.092363156 4278190080
0.012563412 -0.13735485 -0.092363156 4278190080
0.016054498 -0.13444586 -0.089318514 4278190080
0.013140753 -0.13735005 -0.091940761 4278190080
0.013140752 -0.13735008 -0.091940761 4278190080
0.0048521599 -0.12455622 -0.095758572 4278190080
0.0083522489 -0.13738087 -0.095228337 4278190080
0.0083522331 -0.1373809 -0.095228337 4278190080
0.017862577 -0.12593111 -0.089962415 4278190080
0.016304474 -0.12310924 -0.091720894 4278190080
0.0074339667 -0.13738255 -0.095755287 4278190080
0.0074339658 -0.13738258 -0.095755279 4278190080
0.0046418849 -0.13453472 -0.097531013 4278190080
0.0048839631 -0.12299984 -0.095085636 4278190080
0.016010191 -0.13652974 -0.089531906 4278190080
0.010657068 -0.12022939 -0.094224796 4278190080
0.01351287 -0.12027371 -0.093798451 4278190080
0.015993442 -0.13731611 -0.089600816 4278190080
0.015993442 -0.13731614 -0.089600824 4278190080
0.0078008692 -0.12017524 -0.094410524 4278190080
0.01612648 -0.13731484 -0.089499608 4278190080
0.016126487 -0.13731487 -0.089499608 4278190080
0.01909427 -0.12590013 -0.088552639 4278190080
0.019094285 -0.12590013 -0.088552535 4278190080
0.019030482 -0.12870176 -0.087157093 4278190080
0.019030496 -0.12870176 -0.087156922 4278190080
0.015196411 -0.12027982 -0.093057305 4278190080
0.0019093708 -0.12877959 -0.098119758 4278190080
0.01918545 -0.12869819 -0.086987689 4278190080
0.019185517 -0.12869819 -0.086987667 4278190080
