# .PCD v0.7 - Point Cloud Data file format
VERSION 0.7
FIELDS x y z rgb
SIZE 4 4 4 4
TYPE F F F U
COUNT 1 1 1 1
WIDTH 134
HEIGHT 1
VIEWPOINT 0 0 0 1 0 0 0
POINTS 134
DATA ascii
0.050878368 -0.10840405 -0.06648609 4278190080
0.048016183 -0.10551837 -0.065997943 4278190080
0.048016183 -0.10551839 -0.065997951 4278190080
0.050871965 -0.10254385 -0.064315394 4278190080
0.050878111 -0.10541573 -0.064463764 4278190080
0.050878111 -0.10541575 -0.064463794 4278190080
0.050864607 -0.099695861 -0.064551868 4278190080
0.050878484 -0.10612711 -0.064850375 4278190080
0.049332865 -0.10259437 -0.065065108 4278190080
0.049898043 -0.10544471 -0.064889744 4278190080
0.049897984 -0.1054447 -0.064889744 4278190080
0.055266146 -0.096699834 -0.06258706 4278190080
0.053717732 -0.096774034 -0.063717589 4278190080
0.049550142 -0.099742167 -0.065243013 4278190080
0.053737991 -0.10834724 -0.065689683 4278190080
0.048010033 -0.10264657 -0.06585075 4278190080
0.053738151 -0.10714627 -0.064795896 4278190080
0.056581255 -0.096640185 -0.061681069 4278190080
0.056601338 -0.10522348 -0.061605126 4278190080
0.056601338 -0.10522349 -0.061605185 4278190080
0.056600917 -0.10565365 -0.062034819 4278190080
0.059460752 -0.1067457 -0.061975811 4278190080
0.055703677 -0.10525385 -0.062056884 4278190080
0.055703588 -0.10525385 -0.062056877 4278190080
0.054753628 -0.10240442 -0.062231001 4278190080
0.056587547 -0.099509254 -0.061784051 4278190080
0.053734157 -0.10243618 -0.062700242 4278190080
0.06232005 -0.10762032 -0.061930317 4278190080
0.05945868 -0.10820482 -0.063633017 4278190080
0.055307664 -0.099551417 -0.062409997 4278190080
0.053739332 -0.10532727 -0.063157924 4278190080
0.053739332 -0.10532729 -0.063157968 4278190080
0.062318627 -0.10814141 -0.062730327 4278190080
0.056598641 -0.10827015 -0.064566791 4278190080
0.056598403 -0.10839456 -0.06472718 4278190080
0.056192499 -0.10828152 -0.064732954 4278190080
0.059456531 -0.10880609 -0.064710461 4278190080
0.05372633 -0.099597432 -0.0630854 4278190080
0.059559446 -0.10221592 -0.059394907 4278190080
0.059559342 -0.10221592 -0.05939493 4278190080
0.059458591 -0.10221975 -0.059452314 4278190080
0.059638254 -0.099364042 -0.059572361 4278190080
0.059638165 -0.099364042 -0.059572384 4278190080
0.059451208 -0.09937223 -0.059696496 4278190080
0.062323563 -0.10505043 -0.059055641 4278190080
0.062323563 -0.10505045 -0.059055731 4278190080
0.061885402 -0.10506209 -0.059225246 4278190080
0.06188561 -0.1050621 -0.059225246 4278190080
0.061885208 -0.1050621 -0.059225269 4278190080
0.061885431 -0.10506211 -0.059225269 4278190080
0.062323354 -0.10519224 -0.059218518 4278190080
0.062323354 -0.1051923 -0.059218541 4278190080
0.059448197 -0.098011158 -0.059655864 4278190080
0.059448197 -0.098010428 -0.059655886 4278190080
0.059463058 -0.10512488 -0.060135998 4278190080
0.059463058 -0.1051249 -0.060136065 4278190080
0.059444856 -0.096504398 -0.059613414 4278190080
0.065181382 -0.10556477 -0.059204217 4278190080
0.065181397 -0.10556478 -0.059204217 4278190080
0.065181382 -0.10556482 -0.059204236 4278190080
0.065181397 -0.10556483 -0.059204236 4278190080
0.059304547 -0.096513152 -0.059748478 4278190080
0.059304472 -0.096513152 -0.059748501 4278190080
0.059442367 -0.095692039 -0.059799932 4278190080
0.059442367 -0.095691584 -0.05979998 4278190080
0.056595594 -0.1023436 -0.061328027 4278190080
0.065180637 -0.099057026 -0.054858834 4278190080
0.065180622 -0.099057026 -0.054858878 4278190080
0.065186307 -0.10193845 -0.055160549 4278190080
0.065186292 -0.10193846 -0.055160571 4278190080
0.065171614 -0.096241981 -0.055625372 4278190080
0.065171599 -0.096241981 -0.055625409 4278190080
0.06263838 -0.099179804 -0.056730427 4278190080
0.062316686 -0.099199511 -0.057034276 4278190080
0.062322758 -0.10121523 -0.056602973 4278190080
0.06518548 -0.10345392 -0.056472722 4278190080
0.065185495 -0.10345395 -0.056472722 4278190080
0.063090816 -0.096327059 -0.056909092 4278190080
0.062325086 -0.10202685 -0.05646551 4278190080
0.062325116 -0.10215219 -0.056544758 4278190080
0.062208854 -0.10203251 -0.056551833 4278190080
0.068042777 -0.10353398 -0.056476597 4278190080
0.062308811 -0.096361771 -0.057435691 4278190080
0.065163963 -0.093399964 -0.055958059 4278190080
0.065163948 -0.093399972 -0.055958088 4278190080
0.063297309 -0.09347488 -0.057086963 4278190080
0.06518279 -0.10500139 -0.05838412 4278190080
0.065182775 -0.10500139 -0.05838415 4278190080
0.06518279 -0.10500141 -0.058384225 4278190080
0.065182775 -0.10500141 -0.058384247 4278190080
0.070899285 -0.10329498 -0.05650029 4278190080
0.068039663 -0.10499845 -0.058454663 4278190080
0.068039663 -0.10499847 -0.058454797 4278190080
0.068034187 -0.096126363 -0.053882375 4278190080
0.06804198 -0.098965742 -0.053507462 4278190080
0.067715839 -0.096138984 -0.054072417 4278190080
0.068030819 -0.09503644 -0.054141901 4278190080
0.068042867 -0.099826477 -0.053844292 4278190080
0.068521887 -0.093285389 -0.05425223 4278190080
0.070902102 -0.10189253 -0.05465709 4278190080
0.066913448 -0.098992564 -0.053892612 4278190080
0.06802547 -0.093305334 -0.054552745 4278190080
0.07375747 -0.1019199 -0.055215608 4278190080
0.068044372 -0.10191198 -0.05485234 4278190080
0.070877843 -0.090398356 -0.053957559 4278190080
0.073756821 -0.095945902 -0.051213488 4278190080
0.073756881 -0.096006155 -0.051236685 4278190080
0.073697858 -0.095947705 -0.051240131 4278190080
0.076617032 -0.095877491 -0.050230272 4278190080
0.076617338 -0.097337097 -0.051162839 4278190080
0.073760584 -0.098864824 -0.052118793 4278190080
0.07375104 -0.093066752 -0.050948452 4278190080
0.076618105 -0.098849654 -0.051992539 4278190080
0.073125273 -0.093097374 -0.051415477 4278190080
0.076612771 -0.092968427 -0.049483739 4278190080
0.070896141 -0.096023507 -0.05234468 4278190080
0.079478696 -0.09577997 -0.048778474 4278190080
0.078012116 -0.09290868 -0.048579644 4278190080
0.073745914 -0.091644697 -0.05150767 4278190080
0.079475693 -0.097839549 -0.051140469 4278190080
0.070902608 -0.098888896 -0.052388482 4278190080
0.079478115 -0.095059261 -0.048450552 4278190080
0.073758841 -0.10052482 -0.053818595 4278190080
0.07088808 -0.093189508 -0.052806307 4278190080
0.079474673 -0.09885297 -0.05216375 4278190080
0.080218174 -0.09575516 -0.048409596 4278190080
0.076615505 -0.10034697 -0.053838491 4278190080
0.074303426 -0.090242907 -0.0515965 4278190080
0.073741414 -0.090263516 -0.051905051 4278190080
0.076606102 -0.090106629 -0.049497832 4278190080
0.079476893 -0.092822261 -0.047248948 4278190080
0.070902474 -0.10082296 -0.053791221 4278190080
0.077466153 -0.090058289 -0.048755076 4278190080
0.07947173 -0.10000191 -0.053868774 4278190080
