# .PCD v0.7 - Point Cloud Data file format
VERSION 0.7
FIELDS x y z rgb
SIZE 4 4 4 4
TYPE F F F U
COUNT 1 1 1 1
WIDTH 1038
HEIGHT 1
VIEWPOINT 0 0 0 1 0 0 0
POINTS 1038
DATA ascii
0.017820586 0.26248306 -0.54132688 1919043126
0.015988303 0.26057988 -0.54658043 1918715191
0.0094554815 0.25120044 -0.56478602 1919439169
0.011353868 0.25495175 -0.55798858 1919109439
0.036833618 0.2815266 -0.49783546 1922735700
0.017201886 0.26153183 -0.54393578 1918845492
0.036838043 0.28141019 -0.49735457 1922801236
0.024556337 0.26816082 -0.52718091 1918585401
0.016377732 0.26117343 -0.54506725 1918648373
0.015057052 0.25955531 -0.54885942 1918583351
0.013741646 0.25718385 -0.55365074 1918254646
0.011068883 0.25414196 -0.55948776 1918846010
0.021653585 0.26493943 -0.53384751 1918913595
0.012888607 0.25801706 -0.55225563 1918911285
0.017463252 0.26224834 -0.54207146 1918780215
0.0070053376 0.24911112 -0.56850976 1919371580
0.0095213484 0.25295627 -0.56172967 1919042869
0.038327903 0.27317804 -0.50264788 1922603602
0.0090591284 0.2523036 -0.56299353 1919174969
0.014100012 0.25859505 -0.5511232 1918846008
0.025226658 0.26928464 -0.52521348 1918321971
0.020135662 0.26392287 -0.53656703 1918781493
0.0079577118 0.25014535 -0.56687868 1919370815
0.015785031 0.26048923 -0.54696488 1918649399
0.014439836 0.25822133 -0.55172539 1918846517
0.025543554 0.26858807 -0.52629083 1918255669
0.037109353 0.28001037 -0.4981305 1922406482
0.0071293432 0.24861699 -0.56909406 1919437370
0.0067197704 0.24431731 -0.57338279 1919371837
0.0152046 0.26005045 -0.54780513 1918648885
0.0067837127 0.24824448 -0.56959063 1919305532
0.010248492 0.25211263 -0.56318295 1919109433
0.0073527987 0.24990465 -0.56729782 1919371068
0.016266558 0.26103652 -0.5453527 1918582580
0.037484773 0.27938536 -0.49923778 1922669651
0.0090862829 0.25190338 -0.56236017 3999746106
0.016637372 0.26147825 -0.54346663 3999023154
0.036499467 0.28017506 -0.49819535 4002912595
0.0066341762 0.24614181 -0.57083529 3999482935
0.0067121447 0.24637558 -0.57052428 3999812159
0.014292399 0.25938085 -0.54872084 3998957881
0.01460476 0.25980386 -0.54749501 3998957876
0.03860018 0.27191567 -0.50188679 4002715730
0.027308032 0.27216753 -0.51810735 3999159610
0.036178313 0.28010204 -0.49817038 4002847058
0.0093544275 0.25222775 -0.56205332 3999878978
0.0076686167 0.24911632 -0.56680995 3999614522
0.022777501 0.26684836 -0.52981067 3998827825
0.0094035035 0.25298601 -0.56098485 4000075585
0.035250127 0.28441599 -0.49655315 4003044181
0.014139396 0.25947621 -0.54846764 3998892342
0.037882391 0.27301097 -0.50148594 4002781266
0.011864878 0.25759825 -0.55345058 3999220020
0.0092654377 0.2521244 -0.56227183 3999549753
0.013523078 0.25905147 -0.54974812 3998957364
0.015941054 0.26102567 -0.54488569 3999023411
0.027198281 0.27185923 -0.51902884 3999093047
0.0084848125 0.25073981 -0.56459033 3999813442
0.0063677435 0.24422646 -0.57316399 3999483706
0.0064441729 0.24541436 -0.57172537 3999482940
0.021499855 0.26537046 -0.53295046 3999288380
0.016818989 0.26178318 -0.54294163 3999221044
0.021852808 0.26587945 -0.53199971 3999289403
0.011668798 0.25752881 -0.55380321 3999483707
0.010612297 0.25555679 -0.55740768 3998892342
0.009890751 0.25431708 -0.55914599 3999352891
0.0090688914 0.25207379 -0.56224543 3999548984
0.0064497855 0.24440038 -0.57255912 3999483963
0.0066946247 0.24624236 -0.57066101 4000075331
0.0067364308 0.24479984 -0.57213598 3999615037
0.0071797385 0.24739487 -0.5693202 3999548474
0.037279453 0.27556983 -0.50027037 4002912850
0.029629322 0.27245316 -0.51489228 4001004108
0.009568559 0.25305754 -0.56104463 3999351863
0.012624922 0.25824052 -0.5521667 3999220531
0.010020564 0.25473401 -0.55860466 3999352634
0.024996866 0.27037117 -0.5235635 3999025210
0.015334552 0.26036292 -0.5463447 3999155769
0.020662248 0.26468787 -0.53432047 3999091255
0.0072787446 0.24776892 -0.56886148 3999746361
0.017588373 0.2627883 -0.5391627 3026143288
0.012156102 0.2560443 -0.55339241 3026076472
0.020014714 0.26588014 -0.5333724 3025815862
0.0075167902 0.25167638 -0.56293917 3026404154
0.0086420877 0.25195256 -0.56209147 3026339128
0.03485126 0.28035358 -0.49896103 3029899859
0.019941162 0.2665976 -0.53243566 3025552178
0.0099735847 0.25405124 -0.55796522 3026208314
0.034635101 0.28456822 -0.49637496 3029965653
0.015575531 0.26057869 -0.54362684 3026405180
0.0063939318 0.24971293 -0.56699646 3027392593
0.024633041 0.2729232 -0.52007276 3026672960
0.035202939 0.27774653 -0.50001019 3029702479
0.019148311 0.26568857 -0.53394032 3026209849
0.013949715 0.25793716 -0.5495187 3025813042
0.0084196785 0.25161862 -0.56270409 3026535481
0.035732657 0.27441952 -0.50195497 3029768272
0.035716236 0.27455804 -0.50243193 3029965651
0.034936745 0.27968284 -0.49881837 3029768529
0.011287134 0.25636241 -0.55327207 3026273593
0.017001864 0.26228297 -0.54003686 3026208567
0.016726311 0.2620067 -0.54068667 3026273594
0.01466434 0.25867924 -0.54782915 3025748021
0.011909252 0.25635952 -0.5531137 3026339383
0.016583145 0.2616396 -0.54164082 3025944884
0.0046984819 0.24400021 -0.57328653 3026733375
0.01209218 0.25733557 -0.55123085 3026143036
0.015155735 0.25918275 -0.54667288 3025813811
0.0044352962 0.24444565 -0.57298124 3026667323
0.014788055 0.25980663 -0.54546785 3026076985
0.0078595523 0.2517873 -0.56268787 3026535484
0.0080543859 0.25122631 -0.56358123 3027721555
0.0069932635 0.25051579 -0.56542057 3026339132
0.0073900544 0.25042501 -0.56524891 3026404924
0.034489803 0.28530338 -0.49542162 3029965654
0.0212784 0.26834986 -0.52988303 3026275650
0.0070317541 0.2506431 -0.56525666 3026404668
0.0068838759 0.2497305 -0.56693977 3026733377
0.035373762 0.27703467 -0.50090575 3029702993
0.023216236 0.2720086 -0.5224967 3025881655
0.009184815 0.25321105 -0.55985922 3025879348
0.020926613 0.26861054 -0.52927351 3026013501
0.0052681481 0.2444028 -0.57309884 3027128134
0.0097917086 0.25318643 -0.55970496 3025944888
0.012951715 0.25776926 -0.5499596 3025878323
0.018284701 0.26396209 -0.53668821 3026340923
-0.072282769 0.254706 -0.53307694 3025030738
0.020674007 0.26855001 -0.52924192 3025947451
0.0050725131 0.24522346 -0.57237947 3026667325
0.026948588 0.27143428 -0.48268992 3029768275
0.0065112533 0.24908906 -0.56803036 3026601786
0.022637369 0.27148679 -0.52381247 3026144830
0.0050576162 0.24681582 -0.57108372 3026668352
0.017847177 0.26219893 -0.54012734 3025878835
0.0058311597 0.24649626 -0.57119352 3026930754
0.01800943 0.26321608 -0.53816861 3026012214
0.005209703 0.24544813 -0.57232326 3026469946
0.02515259 0.27292496 -0.51977724 3026475580
0.0047968095 0.2465407 -0.57136875 3026667324
0.016185025 0.2603997 -0.54411733 3026339644
0.005492006 0.24446413 -0.57338101 3026799426
0.027625844 0.26964268 -0.48377764 3029439567
0.022220185 0.27093163 -0.52490902 3026012473
0.0056895837 0.24473497 -0.57285953 3026536252
0.0049610236 0.24786428 -0.57002014 3026535999
0.0066916267 0.24983636 -0.5667935 3026865732
0.0071698967 0.25127894 -0.56380075 3026799939
0.022508936 0.2712979 -0.52416497 3026605375
0.034460764 0.28410658 -0.49588507 3029899861
0.014146703 0.25879011 -0.54770237 3026076215
0.0058041541 0.24666144 -0.57109863 3026535999
0.0061030039 0.24860422 -0.56870228 3026667323
0.0056429142 0.24901785 -0.56836718 3026535739
0.018721521 0.26348788 -0.53730547 3026012728
0.0098138181 0.25463662 -0.55696201 3026208823
0.035333727 0.27877972 -0.5000897 3029834832
0.027950279 0.26865911 -0.48402968 3029373518
0.027190296 0.270179 -0.48334879 3029702736
0.010599827 0.25485852 -0.55634528 3026274106
0.0074818591 0.25038698 -0.56549585 3026602045
0.0052303872 0.24457549 -0.57301307 3026601788
0.022536092 0.27097818 -0.52486926 3025749557
0.012168728 0.25674519 -0.55240023 3026339643
0.018746382 0.26368099 -0.53710872 3026012472
0.01870341 0.26324522 -0.5379737 3026078010
0.01090961 0.25553268 -0.55492973 3026076985
0.010069557 0.2544907 -0.55707514 3026208056
0.0057469513 0.24569392 -0.5719822 3026601531
0.035052668 0.27858165 -0.49955249 3029702736
0.022006826 0.27054811 -0.52555257 3025749305
0.0050964244 0.24834843 -0.56941098 3026470199
0.034828931 0.28008601 -0.49921557 3029834322
0.0060001779 0.24993056 -0.56671351 3026537023
0.0052959588 0.24682036 -0.57105756 3026536254
0.014562164 0.25875017 -0.54751569 3025944628
0.023671515 0.27224892 -0.52209198 3026013241
0.011257194 0.25585428 -0.55413198 3025879865
0.035539657 0.27566269 -0.50178725 3029834322
0.0035905554 0.24393503 -0.57334763 3026602046
0.02085603 0.26784566 -0.53093636 3025486388
0.026907599 0.27067432 -0.48265404 3029768531
0.012046698 0.25575092 -0.5541898 3025354292
0.0078169834 0.25211361 -0.56211615 3026404665
0.0068875607 0.25000259 -0.56635833 3026536254
0.0091635557 0.25386068 -0.55860233 3025945657
0.0059802919 0.24810167 -0.56930298 3026535994
0.034723513 0.28298202 -0.49641499 3029899859
0.012417365 0.25624505 -0.55322444 3026339130
0.020503432 0.26697129 -0.53173226 3026210106
0.0050177486 0.24796797 -0.56984711 3026601791
0.0097536407 0.25336447 -0.55924278 3025945657
0.022398775 0.2707943 -0.52522951 3025749559
0.0095000556 0.25383076 -0.55849099 3026208827
0.034797587 0.28133336 -0.49766541 3029834575
0.012529388 0.2570833 -0.55157202 3026273849
0.0061361454 0.24817018 -0.5693537 3026535994
0.0097689098 0.25416735 -0.5578022 3026010679
0.016479574 0.26087499 -0.54285735 3026075953
0.0052778861 0.24880409 -0.56875509 3026470200
0.015064602 0.25943726 -0.54618704 3025879606
0.022466421 0.27046698 -0.5258739 3025881144
0.005539841 0.24414232 -0.57357413 3026207034
0.026919831 0.27293625 -0.48138916 3029636432
0.035793643 0.27413902 -0.50209457 3029702478
0.023281168 0.27103993 -0.52464527 3025684534
0.020201553 0.2675643 -0.53124136 3025683510
0.034720905 0.2833626 -0.49667394 3030031446
0.034995634 0.28262004 -0.49743736 3030229079
0.021595342 0.26897347 -0.52842581 3025684022
0.0053503825 0.24721403 -0.57064974 3026601785
0.019694263 0.26516452 -0.53444815 3025881146
-0.070969015 0.25644436 -0.5367707 4284044886
-0.10061165 0.25889882 -0.49717578 513976217
-0.096340246 0.25982484 -0.49781907 514371740
-0.09524969 0.25999182 -0.49882165 699579815
-0.10221709 0.25861427 -0.49873558 697472650
-0.09429235 0.26009887 -0.49843293 699711145
-0.097117834 0.25963196 -0.49884284 698986911
-0.10168531 0.2587184 -0.49873766 697670543
0.0072215446 0.25240663 -0.56235027 3798025015
-0.07786794 0.24994801 -0.48746219 3799086442
0.012038037 0.25891703 -0.5492788 3797434164
0.0046157655 0.24540524 -0.57213503 3798287931
0.013427719 0.26098984 -0.54544777 3797763384
0.032441385 0.28463456 -0.49757648 3801520724
0.0051682815 0.24744359 -0.56959414 3798353725
0.0053743972 0.24888034 -0.56772977 3798156856
0.021670209 0.26625472 -0.52912444 3797369648
-0.087511286 0.2456343 -0.49400961 3799350125
-0.092397489 0.2428505 -0.49927571 3799679089
0.023227569 0.26927087 -0.52426159 3797304629
0.033741713 0.27963939 -0.49984097 3801586259
0.0079806009 0.25352398 -0.56027704 3797763125
0.024987206 0.27183002 -0.51898175 3798029626
0.03495463 0.27635339 -0.50022632 3801520467
0.0067146169 0.25146145 -0.5635432 3798222911
0.0081880493 0.25404367 -0.55952924 3797632054
0.01292895 0.26011521 -0.54693282 3797828665
0.01408843 0.26178491 -0.54420501 3797763381
0.0094405571 0.25595048 -0.55567354 3797368373
0.010058279 0.25662532 -0.55417776 3797697592
0.023562761 0.27038181 -0.52233809 3797435955
0.021823077 0.26663536 -0.5285762 3797369648
-0.085411116 0.24630581 -0.4916518 3798033756
0.0053125061 0.24847886 -0.56816071 3798090807
0.014016059 0.26184666 -0.54384387 3797697330
0.0048478404 0.24705678 -0.5700562 3798617149
0.010388939 0.25695637 -0.55379206 3797565236
0.013412558 0.26060152 -0.54621005 3797368627
0.036493767 0.27349207 -0.5009042 3801323598
0.0063152714 0.25095296 -0.56457072 3797827637
0.03222277 0.28412023 -0.49833563 3801454933
0.0041602701 0.24528591 -0.57258034 3798156604
0.0073268721 0.25249735 -0.5621165 3798419515
-0.076018542 0.25125134 -0.48595488 3799744885
0.034821413 0.27691618 -0.49995509 3801388623
0.022028495 0.26750624 -0.52706254 3797370166
0.025670901 0.2728273 -0.51711625 3797569847
0.0086491983 0.25474766 -0.5582481 3797368371
0.0067662699 0.25173944 -0.56323195 3797826868
0.0055810376 0.24921514 -0.56748706 3798025272
0.02159345 0.26656181 -0.52851033 3797369649
-0.075121291 0.25188565 -0.48388216 3799152489
0.036215007 0.27382055 -0.50104368 3801389138
0.0050249277 0.2476557 -0.56928557 3797893686
0.031943496 0.28404275 -0.49826178 3801520467
0.0054487577 0.24826884 -0.56848091 3798025788
0.0082912752 0.25445965 -0.5586527 3797632828
0.0096791415 0.25615495 -0.55552691 3797369141
0.037422046 0.27178499 -0.50037849 3801520467
0.0055294707 0.24865572 -0.56803453 3798091063
0.0073340726 0.25263292 -0.56162781 3798551100
0.0065264017 0.25068349 -0.56483871 3797893429
0.036592063 0.2732012 -0.50100249 3801454674
0.034399223 0.27846256 -0.49985015 3801388880
0.011798618 0.25850093 -0.54998839 3797499954
0.03519759 0.27550086 -0.50058132 3801652050
0.014927907 0.26255578 -0.54230261 3797894198
0.014897978 0.26100081 -0.54260993 3244312119
0.035084739 0.27541497 -0.50015098 3247938131
0.01343572 0.25978494 -0.54582828 3244049206
0.0052387314 0.24982403 -0.56649685 3244180024
0.0044768937 0.24581295 -0.57099152 3244574010
0.034768809 0.27764139 -0.49877357 3247806544
0.011208772 0.25798103 -0.55069137 3243983414
0.032649808 0.28418729 -0.49650794 3247740754
0.017757554 0.26334548 -0.53634262 3244312888
0.010618853 0.25740877 -0.5520575 3243918651
0.012955294 0.25927514 -0.54697841 3244048949
0.0053679235 0.25018591 -0.56599939 3244180276
0.035533119 0.27128556 -0.50291944 3247937881
0.016955452 0.26246285 -0.53828794 3244181561
0.0063399374 0.25230718 -0.56276494 3244245555
0.0044173854 0.24600302 -0.57092327 3244705596
0.035687078 0.27340057 -0.50092375 3247609681
0.005597983 0.25078875 -0.5651502 3244443192
0.010385351 0.25718394 -0.55259734 3244114486
0.0089710355 0.25557253 -0.55607384 3244115253
0.020796733 0.26967159 -0.52648395 3244051258
0.019223886 0.26568255 -0.53218246 3243985205
0.033325691 0.28118137 -0.49708745 1033280081
0.035078082 0.27464435 -0.49991027 1033279569
0.034277674 0.27804551 -0.4982723 1033148499
0.0038871497 0.24614255 -0.57118964 1029850683
-0.060833387 0.24957211 -0.49805725 1032424310
0.011766416 0.25882423 -0.54858297 1029259315
0.01633637 0.26277816 -0.53832477 1029391670
0.0047992608 0.24926643 -0.56718367 1029653559
0.019323217 0.26634151 -0.53079993 1029194549
0.034606095 0.27609006 -0.49941432 1033213778
0.03313715 0.28202233 -0.49666813 1033411666
0.034345198 0.27722093 -0.49886167 1033279315
-0.043565214 0.25357503 -0.4848007 1032949866
0.032855447 0.28287426 -0.49638101 1033148241
0.022631295 0.27235606 -0.52073002 1029130804
0.0046150694 0.24865593 -0.56797576 1029587509
0.0093896957 0.25606102 -0.55451071 1029128243
0.023050064 0.2727043 -0.51980126 1029789244
0.031503115 0.28627631 -0.49558118 1033279826
0.019926144 0.26827356 -0.52826351 1029062963
0.0088990405 0.25532666 -0.55587184 1029785655
0.013591019 0.26089263 -0.5440768 1029654072
0.03522991 0.27407202 -0.50015628 1033147982
0.0079345452 0.25407425 -0.55838776 1029194552
0.0084304409 0.25497302 -0.55633706 4216930356
0.0041865516 0.25041112 -0.56659949 4217323830
0.034482617 0.28385162 -0.49202886 4220885331
0.0030262074 0.24560906 -0.57238501 4217586233
0.01950728 0.26929066 -0.52753353 4216865844
0.018871153 0.26735294 -0.53012252 4216931124
0.018946355 0.26754016 -0.5298515 4216865846
0.010600042 0.25790396 -0.55058914 4216864311
0.0032311883 0.24558929 -0.57209134 4217258295
0.010398349 0.2576566 -0.5511024 4216996153
0.033839084 0.28475618 -0.4922502 4220885588
0.0078113209 0.25450775 -0.55766654 4216864564
0.035046112 0.28249973 -0.49289247 4220885074
0.0034114539 0.24802965 -0.56977218 4217455415
0.02008706 0.27020362 -0.52588874 4216734002
0.018188789 0.2659072 -0.53236914 4216997432
0.01334306 0.26189154 -0.54308558 4217192757
0.034780961 0.28393018 -0.49209601 4221871710
0.011201902 0.25902385 -0.54873782 4216864048
0.0032812215 0.24626103 -0.5714525 4217389881
0.019348912 0.26847735 -0.52845538 4216734003
0.013729077 0.26210123 -0.54232383 4217258294
0.019009873 0.2677319 -0.52959448 4216603187
0.0033898433 0.24703674 -0.57063729 4217588027
0.036973327 0.27690074 -0.49466154 4221214040
0.015230847 0.263008 -0.53928602 4217325625
-0.091899112 0.2606104 -0.49982214 279951526
0.031238133 0.28556404 -0.49496758 278370643
-0.094563581 0.26022023 -0.50069964 279622046
-0.087877423 0.26101875 -0.49759489 281136569
-0.081421152 0.26130432 -0.49218309 280939446
-0.087713182 0.26096046 -0.49713197 280938933
-0.090234295 0.26080573 -0.49903017 280609709
-0.084429353 0.26109961 -0.49434808 281333692
-0.10270702 0.25772914 -0.49696144 278239627
0.031291995 0.28528586 -0.49511719 278305106
-0.093341678 0.2604124 -0.50036019 279687839
-0.091644034 0.26065612 -0.49977905 280017318
-0.094693922 0.2597605 -0.49987087 1269741218
-0.063340671 0.2608723 -0.4718138 1270268586
-0.095949702 0.25953761 -0.50009745 1270070696
0.024884766 0.28073135 -0.47656834 1267963729
-0.098456912 0.25892177 -0.49971038 1269412513
-0.095197268 0.25967103 -0.49996337 1269543841
-0.073493756 0.26060215 -0.48134899 1269280920
-0.088778272 0.2604056 -0.49675667 1270860470
-0.074541785 0.26073632 -0.48314494 1270004646
-0.06913545 0.2605077 -0.47620317 1270531245
-0.082103372 0.26066732 -0.49090773 1270992568
-0.10643393 0.25633788 -0.49533692 1267108225
-0.075328 0.26080161 -0.4843145 1270070185
-0.082634643 0.26060766 -0.49117848 1270794933
-0.084355965 0.26054138 -0.49269301 1271387070
-0.093000531 0.2600041 -0.4992739 1269872804
-0.093914516 0.25991488 -0.49980786 1269741218
-0.072404809 0.26048994 -0.47962052 1269412250
-0.076412946 0.26078933 -0.48541802 1270202795
-0.086331755 0.26039883 -0.49409789 1271255228
-0.070683606 0.24506304 -0.47441646 1262369088
-0.099624194 0.2586067 -0.49938461 1269280924
-0.085516199 0.26002353 -0.49299023 482858173
-0.098729722 0.25859335 -0.50000054 480883361
-0.096385352 0.25907543 -0.49989223 481409703
-0.10596354 0.25681841 -0.49892047 478973826
-0.088387266 0.2598713 -0.49530211 482594490
-0.084430121 0.25990951 -0.49126551 482660793
-0.065301813 0.26044387 -0.47348958 481409700
-0.069738753 0.26020241 -0.47702843 480883614
-0.081306189 0.26015943 -0.48916933 482660283
-0.060111392 0.25969553 -0.46957365 480685971
-0.10085068 0.25812849 -0.49996278 480093075
-0.069127552 0.26021188 -0.47642434 481410471
-0.10680297 0.25661165 -0.49879041 478447488
-0.10912259 0.25587177 -0.49759603 477921145
-0.049036466 0.25223127 -0.48823687 243499364
-0.04365832 0.25450313 -0.48743466 244420458
-0.081631459 0.25976568 -0.49099314 516017847
-0.089744553 0.25950998 -0.49688211 516017335
-0.090822622 0.25950831 -0.49801987 515951541
-0.10479133 0.25760442 -0.50355381 512134272
-0.083682522 0.25961828 -0.49243441 516149177
-0.093584955 0.25926054 -0.49974573 514963878
-0.088570848 0.25929004 -0.4959805 515885749
-0.08761774 0.2593537 -0.49528801 516149178
-0.10013608 0.25835654 -0.50228375 513647764
-0.1060583 0.25732952 -0.50355363 511935611
-0.089274749 0.25954491 -0.49655381 515820212
-0.063425057 0.26006174 -0.47159037 515030177
-0.099478103 0.25842848 -0.50193566 514437792
-0.066698097 0.25988275 -0.47419569 514767011
-0.1069397 0.2569401 -0.50390118 511475063
-0.069804631 0.25983191 -0.47725126 514569632
-0.093352512 0.2592864 -0.49962378 514898342
-0.10520369 0.25730005 -0.50381863 511871099
-0.10473387 0.25738218 -0.50372398 512134272
-0.094960757 0.25911433 -0.50048739 514832549
-0.1061905 0.25709876 -0.50388139 511606905
-0.10977861 0.25604475 -0.5025509 511080563
-0.098288335 0.25834379 -0.50160533 514503586
-0.064085208 0.26005018 -0.47223723 514767521
-0.088334873 0.25960684 -0.495857 516149175
-0.097831897 0.25867733 -0.50140244 514503585
-0.067949288 0.25988969 -0.47556037 515096232
-0.078478202 0.26030439 -0.48878872 515293869
-0.066394053 0.25983089 -0.47361928 514832804
-0.096851759 0.25856969 -0.50118911 515029928
-0.084951043 0.25982818 -0.49334151 516412605
-0.06919647 0.25983572 -0.47662443 514767524
-0.074753396 0.26033413 -0.48497328 514701219
-0.084447727 0.25955278 -0.49292022 516017847
-0.091991007 0.25939763 -0.49872112 515820212
-0.064421408 0.26000124 -0.47235602 515030179
-0.08813788 0.25921351 -0.49647138 683723959
-0.10174022 0.25652733 -0.49810839 681090189
-0.070037015 0.25909281 -0.47789672 681683609
-0.064084388 0.2596634 -0.47258168 682539681
-0.081745163 0.25903556 -0.4901621 683526581
-0.091161847 0.25867712 -0.49852005 683789751
-0.087968633 0.25885415 -0.49595422 683658167
-0.095788635 0.25797826 -0.50009698 683197614
-0.09138684 0.25866234 -0.49868959 683461043
-0.082248084 0.25934827 -0.49074265 683526580
-0.095033638 0.25811887 -0.499973 683526323
-0.064403303 0.25969511 -0.47308293 682868132
-0.093526289 0.25839216 -0.49967676 683328947
-0.078884721 0.25916928 -0.48774397 682934698
-0.064740114 0.25962681 -0.47311512 682407584
-0.1063457 0.25486875 -0.495006 679905921
-0.10276151 0.25617036 -0.49747255 680958604
-0.089343831 0.25878942 -0.49711508 683591859
-0.098547421 0.25756922 -0.49973166 682275746
-0.096854709 0.25773534 -0.50006628 682868136
-0.072094984 0.25910059 -0.48013866 680959628
-0.071805947 0.25951245 -0.48022079 681420435
-0.095332794 0.25831205 -0.49987257 682736295
-0.09302409 0.25876749 -0.49959326 683460784
-0.097398899 0.25760368 -0.50001401 682670503
-0.075961702 0.25920469 -0.48478374 682473892
-0.090027198 0.25875092 -0.4976615 683921082
-0.10591934 0.25504935 -0.49542436 679971971
-0.08625263 0.25818816 -0.49381953 4106473402
-0.080290854 0.25878319 -0.48877877 4106079156
-0.080806226 0.25842154 -0.48908323 4105750191
-0.098412327 0.25724247 -0.50103712 4105091241
-0.064450435 0.25924373 -0.47377253 4104959648
-0.080553755 0.25842419 -0.48882383 4106079153
-0.097494461 0.25736722 -0.50064355 4105617579
-0.10538006 0.25596392 -0.50243777 4102457214
-0.059755519 0.25969413 -0.4708401 4104169355
-0.079267174 0.25879833 -0.48773789 4105684399
-0.094641633 0.25751436 -0.49961418 4106144437
-0.065756761 0.25910726 -0.47453418 4105025697
-0.061109621 0.25965992 -0.47214955 4104565399
-0.059071686 0.25960416 -0.46966279 4103906183
-0.10885504 0.25509405 -0.50201434 4100877932
-0.10437477 0.25618279 -0.50240189 4102590081
-0.099082433 0.25688449 -0.50137049 4104893343
-0.077730939 0.25876713 -0.48591655 4105025954
-0.099802665 0.25675872 -0.5015437 4104893344
-0.093946524 0.25759596 -0.49925667 4105946804
-0.06313061 0.25936782 -0.47293764 4105090976
-0.096855767 0.25741366 -0.50017118 4105485996
-0.067042597 0.25899145 -0.47537333 4105025441
-0.083600819 0.25828105 -0.4914133 4106342330
-0.088893384 0.25799447 -0.49573192 4106407609
-0.098886482 0.25716469 -0.50117862 4105091237
-0.0744702 0.25879976 -0.48252663 4104104085
-0.09118703 0.2578553 -0.49753195 4106210231
-0.080286369 0.2584472 -0.48864758 4106144948
-0.090028659 0.25794637 -0.49672288 4106275766
-0.078758538 0.25879031 -0.48714572 4105684399
-0.079518855 0.25845614 -0.48786438 4105684655
-0.092297375 0.25808752 -0.49847549 4106276022
-0.084811702 0.25856811 -0.49265429 4106078645
0.028675187 0.26913705 -0.48309672 4103049550
0.029178564 0.26829672 -0.48370269 4102852427
-0.10950445 0.25434262 -0.5017308 4100878187
-0.088059217 0.25808346 -0.49657699 2126630585
-0.10783138 0.25511202 -0.50405377 2122285945
-0.087103069 0.25817123 -0.49594966 2126301876
-0.10791207 0.25517908 -0.50446004 2122154359
-0.10246135 0.25613192 -0.50303257 2123931537
-0.09680485 0.25713089 -0.50160182 2125840301
-0.093820594 0.25753063 -0.50024062 2126301105
-0.071697526 0.24358679 -0.47463953 2118336069
-0.0695948 0.23957074 -0.48472342 2118073411
-0.070180938 0.23739828 -0.47791246 2118270789
-0.10224176 0.25616303 -0.50293964 2124523931
-0.092671171 0.25766742 -0.49963853 2126564279
-0.090851888 0.25783753 -0.49845895 2126630072
-0.098223589 0.25688973 -0.50200474 2125247649
-0.034605153 0.25682026 -0.4805159 293962592
-0.085774779 0.25794002 -0.49447954 297650614
-0.10462645 0.25577432 -0.50519907 294489988
-0.10602569 0.25535798 -0.50477225 294161794
-0.075223245 0.25813308 -0.48360524 295939738
-0.086443275 0.25794682 -0.49525991 297716147
-0.08139573 0.25814784 -0.49057654 297650096
-0.073864035 0.25809029 -0.48187974 295610517
-0.093938299 0.25734687 -0.50076711 297716661
-0.082069814 0.25822103 -0.49168041 297453490
-0.081140921 0.25816378 -0.49036825 297584560
-0.085971549 0.25797561 -0.49486956 297256370
-0.078869596 0.258205 -0.48802578 297124524
-0.07315094 0.25778323 -0.47961432 294688389
-0.098075129 0.25705796 -0.50401002 297123241
-0.10263355 0.25625131 -0.50525039 295412114
-0.087394089 0.25787023 -0.49595585 297585076
-0.099811181 0.2568197 -0.50481147 296334242
-0.07729096 0.24926488 -0.48061702 291134803
-0.080401182 0.25816587 -0.48955029 297387696
-0.059322774 0.25845569 -0.46908998 295676041
-0.081588224 0.25822127 -0.49114266 297452718
-0.092986584 0.25736958 -0.50135607 800901041
-0.10508207 0.25506586 -0.5052669 797740932
-0.095413439 0.25709319 -0.50276971 800572076
-0.084670618 0.25786695 -0.4943758 800901557
-0.1035375 0.25573251 -0.50543886 798268556
-0.087494001 0.25768808 -0.49670085 801230264
-0.098103352 0.25669521 -0.50390309 800439721
-0.084157214 0.25793889 -0.49414095 801164726
-0.097001664 0.25657538 -0.50338483 800374184
-0.10707203 0.25458434 -0.50395477 796885626
-0.089915261 0.25760347 -0.49901932 800901042
-0.079420269 0.25821856 -0.49014387 800703920
-0.074181594 0.25826806 -0.48449099 799190168
-0.08291097 0.25805411 -0.49328721 800901556
-0.067109466 0.25744033 -0.47260773 799717024
-0.066128999 0.25754088 -0.47198337 799584921
-0.10535795 0.25498444 -0.50518996 797280895
-0.091737792 0.25741559 -0.50017196 801164214
-0.059691984 0.25826493 -0.46818602 799058058
-0.057845626 0.24987084 -0.49316624 797608560
-0.087052464 0.25769237 -0.49622443 800770227
-0.082213216 0.25803906 -0.49243101 800572591
-0.064114258 0.25791168 -0.4714798 798729357
-0.089475155 0.25762665 -0.49863523 801098421
-0.08268021 0.25804806 -0.49299929 800704176
-0.1061093 0.25492954 -0.50451308 797412482
0.032898508 0.28434849 -0.49272671 798333525
-0.066462666 0.25748074 -0.47207263 799189908
-0.064450845 0.25785309 -0.47157958 799584922
-0.055867504 0.25001848 -0.49014875 2357889385
-0.072167329 0.25311306 -0.47625032 2356640109
-0.079253778 0.24899143 -0.48678392 2354929495
-0.037992381 0.25737023 -0.48939595 2357428322
-0.044653121 0.25240865 -0.48129654 2358284141
-0.040759616 0.25427672 -0.48085833 2358481262
0.030542251 0.28275025 -0.48285604 2358285144
0.033775412 0.28479812 -0.49041462 2358483027
0.031298608 0.28303874 -0.48335651 2358021711
-0.077808432 0.24889795 -0.48006085 2354271565
-0.082061216 0.25738448 -0.49115598 2125972398
-0.072631925 0.25662944 -0.47668946 2122878847
0.025337845 0.26658592 -0.48385105 2123140433
0.026124096 0.28025457 -0.47717014 2123535699
0.027600462 0.28257316 -0.48665193 2122811978
-0.069685392 0.23887123 -0.47880861 2117678651
-0.086112097 0.25724784 -0.49514866 2126300851
-0.066957995 0.2571696 -0.47277817 2124919452
-0.079030961 0.25748229 -0.48814791 2125577641
-0.076274015 0.25727201 -0.48397052 2123998097
0.026706204 0.28121993 -0.48115495 2123074892
-0.070185572 0.25676605 -0.4745383 2123931790
-0.059857871 0.25735405 -0.47067851 4204108928
0.026292335 0.27823487 -0.47823727 4203252298
-0.075446211 0.25123432 -0.47694984 4201147487
-0.082687892 0.25737906 -0.49301463 4206544560
-0.060426768 0.25656816 -0.47098359 4204043135
0.031552412 0.28442854 -0.49312365 4203910738
-0.041942574 0.25389215 -0.48056278 4203646315
0.02952059 0.28223053 -0.48660091 4203120713
0.027028872 0.28070775 -0.48055607 4203449675
-0.059970148 0.25009555 -0.49655932 4203186290
-0.060030643 0.25600445 -0.46964842 4203844726
-0.08874993 0.2568481 -0.49729571 4206741941
-0.064504042 0.24696402 -0.49614206 4200488274
-0.065209694 0.24686994 -0.4983075 4200290639
-0.070906363 0.25724822 -0.47917852 4203779974
-0.055518866 0.25060526 -0.49065772 4203448938
-0.077418655 0.25748962 -0.48762837 4205557409
-0.081936553 0.25743353 -0.49242949 4206479025
-0.086861134 0.25701317 -0.49596047 4206544815
-0.07231193 0.2573581 -0.48127601 4203911560
0.025567409 0.27970198 -0.47742587 4203647567
0.031109782 0.28383029 -0.4907833 4203910995
-0.092533484 0.25659233 -0.50032419 4206610095
-0.033903122 0.25583711 -0.47562909 4202725213
0.029791377 0.28272268 -0.48701099 4203318350
-0.063670836 0.25419679 -0.47026494 4203582075
-0.092068911 0.25665295 -0.50008994 4206676147
0.031277642 0.28353745 -0.49078181 4204042070
-0.064310469 0.25781041 -0.4744446 4205096084
-0.053732801 0.25157478 -0.4902719 4203185511
-0.068535082 0.25716189 -0.47610807 4204438418
-0.073428936 0.25738874 -0.48267472 4204306317
-0.082603388 0.23328567 -0.49577048 4200752202
-0.087816194 0.25692427 -0.49661019 4206742196
0.026914271 0.27986744 -0.48008117 4203384139
-0.038458083 0.25537077 -0.47776061 4203317601
-0.070344336 0.25716603 -0.47815713 4204832660
-0.049606722 0.25261924 -0.48832655 4203580782
-0.085108489 0.25723949 -0.4950681 4206544563
-0.091871575 0.25664639 -0.49984232 4206807733
-0.068153203 0.24164307 -0.48790216 4198711620
-0.060141295 0.25699195 -0.47097272 4204042877
-0.041814495 0.25466824 -0.47530305 4203646054
-0.066888712 0.25755849 -0.47614092 4205293980
0.031248039 0.28396636 -0.49282634 4203910738
-0.063021086 0.25481999 -0.47073805 4203714172
-0.060659859 0.2556653 -0.47041774 4203450484
-0.05291279 0.25038537 -0.48451644 4203646825
0.026119566 0.27886119 -0.4779653 4203318087
0.02661076 0.27846968 -0.47895449 4203318347
0.026128933 0.27959862 -0.47801653 4203449930
0.0291289 0.28150713 -0.48526245 4203383887
0.029562335 0.28262886 -0.48682272 4203318349
-0.049002972 0.25165331 -0.48338613 4203646568
-0.084416881 0.25724754 -0.49432972 4206281646
-0.052549616 0.25166371 -0.48678097 3901459812
-0.096819513 0.25595626 -0.50307202 3904224938
-0.074616037 0.25646928 -0.48118716 3901132157
-0.067726739 0.24621283 -0.50036258 3897839690
-0.072425246 0.2562333 -0.47765648 3901263741
-0.10325791 0.25516662 -0.50635612 3901987464
-0.090213493 0.25620323 -0.49838871 3904423087
-0.097248904 0.25563827 -0.50333261 3904225194
0.02940548 0.27974433 -0.48180661 3901393998
-0.10408656 0.25506356 -0.50677204 3902053514
-0.10482051 0.25463772 -0.50680512 3901657477
-0.05690334 0.25079271 -0.4917495 3901459308
-0.058662828 0.25040954 -0.49398559 3901327727
-0.078537568 0.25677902 -0.48846245 3903567776
-0.061449561 0.2571128 -0.46982655 3902184834
-0.099153832 0.25545451 -0.50452721 3903501475
-0.049329005 0.25261387 -0.48639241 3900669024
-0.086986437 0.25638977 -0.49577552 3904554927
-0.076023333 0.25656456 -0.48472655 3902317457
-0.035806235 0.25505584 -0.47661746 3900932449
-0.048517559 0.25212517 -0.48405489 3901393254
-0.040752191 0.25414485 -0.47596496 3901525091
-0.097230144 0.25593016 -0.50339746 3904290987
-0.087451488 0.25667599 -0.49624795 3904357294
-0.070697062 0.23813973 -0.47946388 3896457793
-0.086729422 0.25642762 -0.4956767 3904554928
-0.063216843 0.25450155 -0.46966478 3901394807
-0.066820897 0.2534858 -0.47201014 3900473968
-0.096389256 0.25571999 -0.50278783 3904620467
-0.096567266 0.25601009 -0.50305331 3904225194
0.030812332 0.28069434 -0.4847444 3901196366
-0.061104029 0.25716609 -0.46970168 3901856126
-0.086533576 0.256704 -0.49537587 3904488367
0.027901864 0.27876365 -0.47882858 3901196875
-0.105972 0.25441593 -0.50700247 3901197440
0.028640939 0.27962396 -0.48039451 3901064779
-0.086708963 0.2567617 -0.49584341 3904554928
-0.062433612 0.25656021 -0.46998125 3901987456
-0.084563211 0.25687703 -0.49404237 3904291759
-0.045080133 0.25296828 -0.48053724 3901525609
-0.089514032 0.25626469 -0.49792176 3904489136
-0.10088216 0.25523576 -0.50536597 3903303839
0.033816792 0.28334832 -0.49082813 3901986643
-0.10108259 0.25548628 -0.50549906 3902645397
-0.041633748 0.25486186 -0.48201239 3901656170
-0.066362903 0.25653386 -0.47411576 3902514575
-0.095701881 0.25581521 -0.5024941 3904225456
-0.084292017 0.25660619 -0.49387977 3904357295
-0.099963725 0.25566146 -0.50510907 3903501474
-0.063258924 0.25493458 -0.47002065 3901724029
-0.10708631 0.25408441 -0.50787979 3901065599
-0.063446961 0.25649709 -0.47078204 3902448011
-0.086029306 0.25645319 -0.49503741 3904554929
-0.067998767 0.25630292 -0.47479302 3901987977
-0.10176039 0.25510767 -0.50571126 3902711189
-0.079258204 0.2571964 -0.48975289 3903699878
-0.10687608 0.25437254 -0.50777578 3901262977
-0.077380106 0.25591946 -0.48524693 2476582547
0.026676869 0.27494162 -0.47956747 2475659599
-0.073799014 0.25534576 -0.47867 2474674295
-0.044861916 0.25244346 -0.47784257 2475132514
0.027858755 0.27934667 -0.48377362 2474870347
-0.10564395 0.25385228 -0.50574952 2475199873
-0.10737712 0.25268045 -0.50585014 2475792012
-0.092108712 0.25569183 -0.4999775 2478359984
0.032902781 0.28259245 -0.49381027 2475922775
0.027631225 0.27912292 -0.48295325 2474804550
0.032849669 0.28238797 -0.49289379 2475856978
0.025773183 0.27806532 -0.47991356 2475199049
-0.062319547 0.2561537 -0.47018701 2476055426
-0.085207537 0.25579166 -0.49304247 2478293935
-0.036771763 0.25478318 -0.4758133 2474737761
-0.10686142 0.25359115 -0.50581318 2475134080
-0.087912545 0.25582516 -0.49610692 2478227371
-0.080940098 0.25600269 -0.48946363 2477636004
-0.062871628 0.25486341 -0.46980217 2475660413
-0.07302434 0.25512692 -0.47679469 2474739319
0.027119843 0.27893373 -0.48260015 2475133003
-0.078410611 0.25596166 -0.48655388 2477307041
-0.10691889 0.25367481 -0.50627255 2475133823
-0.06257955 0.25526074 -0.46965849 2475726461
-0.060315572 0.25056803 -0.4974682 2474934894
-0.042351685 0.25314516 -0.47566614 2475132255
-0.093190268 0.25563496 -0.50086308 2478228397
0.032333855 0.2822206 -0.49265003 2475791184
0.026679281 0.27794847 -0.48090893 2357758540
0.029645607 0.2802951 -0.48894951 2358285138
-0.082312077 0.25583816 -0.49164817 2360326825
-0.06793832 0.25358176 -0.4723075 2356838510
-0.085936509 0.25571468 -0.49492818 2360656044
-0.065615676 0.25379246 -0.47090727 2357495920
-0.098366857 0.25477335 -0.50498784 2360721834
-0.089211226 0.25523448 -0.4975161 2360722094
-0.10233919 0.25462136 -0.50846136 2359471259
-0.091662526 0.25541455 -0.49960655 2360787885
-0.09832944 0.25507393 -0.50509059 2360656042
-0.064979456 0.25369063 -0.46979457 2357495664
-0.065315045 0.25422823 -0.47094786 2357626994
-0.048422508 0.2529501 -0.48524171 2357889386
-0.10007195 0.25473127 -0.50658858 2360392102
-0.074976139 0.25502074 -0.47991243 2357364857
-0.073458619 0.25458458 -0.47621131 2357167477
-0.10453788 0.25487873 -0.51078749 2357825154
-0.099543095 0.25498366 -0.50595522 2360326310
-0.10331911 0.25491452 -0.50965655 2358680971
-0.088121727 0.25552905 -0.49637443 2360787115
-0.068629913 0.25340801 -0.47221652 2356245605
-0.068278678 0.25351202 -0.47233525 2356904047
-0.075497665 0.25523213 -0.48304191 2357891969
-0.068400584 0.25410014 -0.47188777 2357233014
0.029312307 0.2800999 -0.48837328 2357758542
-0.080283016 0.2555829 -0.48974589 2359603869
-0.099103674 0.25504369 -0.50577408 2360326310
-0.085708685 0.2554011 -0.49460879 2360525227
-0.10139294 0.25493607 -0.50770372 2359339159
0.027904762 0.27894109 -0.48434228 2357429833
-0.10448784 0.2546722 -0.50974697 2358219655
-0.038815178 0.25480536 -0.47629049 2357889635
-0.09077926 0.25545961 -0.49887934 2360919213
-0.067731477 0.25419998 -0.47165707 2357364851
0.030408425 0.28089362 -0.49099469 2358088019
-0.07180912 0.25423995 -0.4728047 2357233782
-0.088950202 0.25558043 -0.49750388 2360458409
-0.082820818 0.25547689 -0.49192178 2360327080
0.026594417 0.2775594 -0.47914127 2357626954
-0.10180019 0.25463274 -0.50794727 2359668638
0.031734753 0.28236154 -0.49659038 2358350928
-0.080824956 0.25586024 -0.49016616 2360261285
-0.079265222 0.25558999 -0.48870593 2359405722
-0.077435911 0.25561285 -0.48688412 2359339927
-0.10440465 0.25448081 -0.50997543 2358219655
-0.052292671 0.25157163 -0.48455176 2357955432
-0.10196261 0.25464311 -0.50816602 2359471260
0.0033324428 0.24420588 -0.572712 375539259
-0.10441121 0.25325653 -0.50592202 378113922
0.017240182 0.26425692 -0.53451866 374949433
0.0041923109 0.25087294 -0.56534725 375145013
0.017066702 0.26370153 -0.53525728 374949176
0.0034403813 0.24314302 -0.57345968 375275576
-0.089485079 0.25517988 -0.49905586 380747431
-0.045302246 0.25356877 -0.47480917 378309732
0.0079756705 0.25439939 -0.55658114 374619440
0.003524466 0.24238043 -0.57398623 375276087
0.01316912 0.26120347 -0.54328525 375013429
-0.1019381 0.25366011 -0.50518775 379759257
0.034383938 0.2761254 -0.49845678 378639440
0.0195767 0.27147239 -0.5248065 374819382
0.013770897 0.26196784 -0.54129416 375408183
-0.092410713 0.25495726 -0.50113511 380944300
-0.075007357 0.25506136 -0.48290741 377983105
-0.09548258 0.25451112 -0.50230896 381207985
-0.097805575 0.25416651 -0.5031606 380944300
-0.074486166 0.25499204 -0.48201558 377850747
0.020236915 0.27221358 -0.52317441 375017017
0.0040393742 0.24934655 -0.56723845 375210550
0.0041749272 0.25103447 -0.56523442 375079220
0.017448436 0.265219 -0.53337961 374883892
0.009695543 0.25711146 -0.55164504 374750512
0.0087649338 0.25550276 -0.55443698 374816818
0.028610937 0.27874625 -0.48460007 378046799
-0.037638526 0.25598496 -0.47911331 378111592
0.014039245 0.26225269 -0.54064268 375276597
0.032435432 0.28178558 -0.49654865 378705488
-0.091551855 0.25499564 -0.50039512 380944297
0.030532533 0.28007868 -0.48890162 378442064
0.017573567 0.26649886 -0.53163761 374620723
-0.07367073 0.2413861 -0.49305442 374623567
0.012867868 0.26117468 -0.54334509 375013685
0.0045451452 0.25171942 -0.56408507 374881842
-0.083581336 0.25555941 -0.49451488 380747179
0.034015022 0.2778081 -0.49757153 378770771
0.019992247 0.27214509 -0.52312374 374885431
-0.081962049 0.25550467 -0.49251059 380484006
-0.10074268 0.25374365 -0.50430208 380154529
-0.093686521 0.25470418 -0.50129861 380944813
0.031713966 0.28118271 -0.49290562 378442064
0.0061787427 0.2529504 -0.56091714 375211574
0.034098689 0.2772527 -0.49792111 378705234
-0.09135069 0.2549901 -0.50015199 380944555
0.032451179 0.28151193 -0.49675956 378639695
0.011340764 0.25900292 -0.54793304 374685747
0.026705297 0.27718437 -0.47918424 377849674
-0.10177737 0.25364438 -0.50494057 379693464
0.03501511 0.27318135 -0.4994489 378573646
0.034824371 0.27415779 -0.4994776 378770512
-0.081209108 0.2555396 -0.49186683 380615078
-0.10155413 0.25367793 -0.50486082 379693464
-0.098254248 0.25410745 -0.50336176 380812202
0.018425666 0.26944664 -0.52781612 374685746
0.017440777 0.26612106 -0.53216326 374883638
0.012585745 0.26031184 -0.54493046 374422577
-0.10239896 0.25357983 -0.50530082 379561878
0.003344354 0.24377561 -0.57306278 375670332
-0.075502805 0.2551648 -0.48393592 378180482
-0.085416436 0.25556138 -0.49649987 380812969
0.012970557 0.26071692 -0.544002 375079733
0.018621162 0.26888028 -0.52847123 374619953
0.015831385 0.26297611 -0.53730309 376594262
0.0053426977 0.25233418 -0.56270826 374815535
0.003524801 0.24251965 -0.57386661 375210294
0.013410738 0.26172203 -0.54205173 374882098
0.018614883 0.26909658 -0.52829581 374619952
0.017418753 0.26633653 -0.53201163 374686519
0.027567845 0.27773234 -0.48087552 377849674
0.0036785423 0.24709827 -0.56971037 375408698
-0.073428787 0.25349355 -0.47580045 2205777520
0.029796135 0.26873475 -0.48377144 2206434377
-0.090391383 0.25469196 -0.4997299 2209529771
-0.089048587 0.23969318 -0.51249307 2205381965
0.027814984 0.27313593 -0.48107007 2206632010
0.02899001 0.27053073 -0.48283577 2206961229
-0.075642981 0.25478369 -0.48431942 2206897026
0.029385507 0.27046955 -0.48367888 2206697546
-0.10478642 0.2531352 -0.50778544 2207290502
-0.088482603 0.25466013 -0.49752748 2209727150
-0.039596204 0.24744982 -0.56098664 2207938411
0.028258799 0.27155611 -0.48170981 2207026767
-0.099163413 0.25405923 -0.50613862 2209331366
-0.09848173 0.25416541 -0.50591403 2209331365
-0.096228629 0.25448683 -0.50502115 2209792684
0.028674792 0.27073458 -0.48246703 2206961228
-0.080184698 0.25469413 -0.4887732 2208016020
-0.087802708 0.25467944 -0.49688902 2209266600
-0.093582287 0.25458598 -0.50264984 2209463978
-0.091903299 0.2546401 -0.50110275 2209661098
-0.083680913 0.25464135 -0.49227813 2209069221
-0.084573656 0.25471392 -0.49358255 2209266856
-0.095388442 0.2545512 -0.50442487 2209792687
-0.10543758 0.2529062 -0.50739527 2207356810
-0.094172627 0.25459129 -0.50330812 2209727150
-0.10219043 0.25298402 -0.50630224 1201974937
-0.080942087 0.23813176 -0.50657851 1196969803
-0.075355716 0.25095737 -0.53441024 1195919176
-0.082610622 0.25464505 -0.49312726 1202173091
-0.071347125 0.24360403 -0.47625378 1195260224
0.027796492 0.27781233 -0.48306316 1199670345
-0.099283978 0.25325769 -0.50447237 1202435490
-0.087360889 0.25424793 -0.49635381 1202436260
-0.1068907 0.25244489 -0.50881374 1200724106
-0.10623855 0.252424 -0.5080201 1200526986
-0.10677857 0.2524021 -0.50849444 1200658314
-0.071887083 0.24336401 -0.47450846 1195260480
-0.096098699 0.25351545 -0.5022707 1203225774
-0.091166645 0.25392044 -0.49889356 1202764967
-0.08388415 0.2545428 -0.49401152 1202436258
-0.071433865 0.24238017 -0.47720405 1195325758
-0.083361164 0.25460503 -0.49374449 1202239135
-0.090901807 0.25397491 -0.49886465 1202764968
-0.089497328 0.25409114 -0.49790516 1202502054
-0.050419316 0.25309381 -0.48727956 1200327276
-0.10016024 0.25314865 -0.50489986 1202303906
-0.070986517 0.23985375 -0.47836065 1194799929
-0.093169078 0.25380528 -0.5004915 1202633640
-0.091127247 0.25386131 -0.50054777 313441448
-0.04614386 0.25247797 -0.47891083 310805859
-0.10670977 0.25252351 -0.51103956 311201921
-0.074442163 0.24154861 -0.49314013 307449167
-0.098910674 0.25310501 -0.50537848 313308835
-0.075179398 0.2546249 -0.4869943 310545275
-0.07485085 0.25178963 -0.47507015 308109139
-0.087673143 0.25407118 -0.49782407 313309347
-0.095029965 0.25345504 -0.50284255 313967535
-0.080629915 0.25427252 -0.49120164 312914077
0.032668449 0.28104284 -0.49424991 311398483
0.028962279 0.27779773 -0.48311961 310346312
-0.089519665 0.25350064 -0.49923062 4121606050
-0.085729927 0.25370577 -0.49615458 4121210781
-0.095262796 0.25319013 -0.50388926 4122263723
-0.099599391 0.25276628 -0.50653189 4121737381
-0.096138269 0.25311297 -0.50446075 4122000552
-0.10817591 0.25107801 -0.50782245 4119630468
-0.096973032 0.25306526 -0.5051257 4122131881
-0.08622504 0.25366685 -0.49650124 4121276573
-0.10415643 0.25187442 -0.50724167 4121012890
-0.091610789 0.25333989 -0.50070381 4121671587
-0.10143161 0.25246993 -0.5071063 4121407901
-0.088902727 0.25344867 -0.49833483 4121474208
-0.098708346 0.25288597 -0.50613904 4121802660
-0.092961356 0.2532481 -0.50171423 4121803430
-0.085218608 0.25376162 -0.49587095 4121276317
-0.09508799 0.25316578 -0.50359118 4122132393
-0.064823411 0.24791999 -0.47455767 1853455714
-0.063396968 0.24850641 -0.47559306 1853586785
-0.06986443 0.24519715 -0.47418129 1849506881
-0.06315095 0.24855311 -0.47409055 1853717343
0.002438043 0.24722566 -0.57083702 2958441522
0.011312327 0.26194856 -0.54281694 2958245425
0.0057304134 0.25515875 -0.55698526 2958112812
0.0018464049 0.24484928 -0.5731352 2958835767
0.002783071 0.24887753 -0.56851411 2958902585
0.0072080083 0.25609171 -0.55468279 2958245941
0.008760375 0.25913748 -0.54838169 2958968895
0.0020950616 0.2502653 -0.56691402 2958244399
0.011406825 0.26106843 -0.54431033 2958508858
0.00070776138 0.24448293 -0.57347906 2958901815
0.036340281 0.27206251 -0.49793711 2962001997
-0.097212583 0.25259814 -0.50530541 2963846304
0.001729521 0.24278723 -0.57478917 2958967611
0.0086605176 0.25747594 -0.55165011 2957785136
0.0016859745 0.24124624 -0.5758751 2959033658
0.034763578 0.27329788 -0.49744797 2962133327
0.0019686038 0.24011475 -0.57678401 2958901815
0.036293913 0.27234754 -0.49775633 2962067790
0.0014877716 0.24278285 -0.57482022 2958901302
0.014897482 0.26482737 -0.53659475 2958377525
0.00764444 0.25766864 -0.55140901 2958244913
0.0022584354 0.24717176 -0.5708099 2959363141
0.016701398 0.26802915 -0.53106344 2958181171
0.0091156382 0.25760236 -0.55125219 2957982260
0.0022522279 0.24602452 -0.57182878 2958638387
0.017195156 0.2687524 -0.52968419 2957917231
0.0027027633 0.24792382 -0.5698241 2958572595
0.018805591 0.27229875 -0.52316928 2958445365
0.0056943502 0.25352314 -0.56039488 2958836281
0.01064046 0.25925756 -0.54790348 2958114353
0.00082567288 0.243001 -0.57461232 2958836023
0.012176351 0.26125953 -0.54382986 2958311473
0.031494107 0.28021029 -0.49574587 2962133839
0.035049085 0.27338621 -0.49753341 2962133071
0.0015667611 0.24032231 -0.57653242 2959033914
0.0021053073 0.24143985 -0.57574791 2959231039
0.0055560363 0.25408491 -0.55935645 2958441778
0.0019252967 0.25050139 -0.56660622 2958441780
0.014272626 0.26402372 -0.53824282 2958640440
0.00085550069 0.24256231 -0.574956 2958704181
0.012793337 0.26305586 -0.54045159 2957983286
0.0095189279 0.25870085 -0.54926622 2958179376
0.015877666 0.26658079 -0.53357697 2958245938
0.0054659494 0.25479725 -0.5577125 2958507573
0.0022529727 0.24772732 -0.56997973 2958572596
-0.075785816 0.25246143 -0.48767334 2960160361
0.033633806 0.2764723 -0.49755302 2962198864
-0.099698007 0.25224194 -0.50633121 2964109219
0.0029014836 0.25057507 -0.5664835 2958507313
0.017414464 0.27177483 -0.52429032 2958379317
0.010126784 0.26056084 -0.54543531 2958179893
-0.096996561 0.25261918 -0.50516999 2964438441
0.0035767406 0.25169781 -0.56446731 2958244914
0.0014471546 0.24873263 -0.56891453 2958638901
0.018629136 0.27299526 -0.52183855 2958643253
0.026335146 0.2755799 -0.48181337 2961342790
0.0018107728 0.24216998 -0.57521099 2959033657
0.017907266 0.27234152 -0.52302897 2958774078
0.0015238094 0.24768966 -0.57007444 2958967610
0.0013804383 0.24552816 -0.57255715 2958769973
0.0075765462 0.25553569 -0.55579007 2958771252
0.01387458 0.26540208 -0.53583717 2958444599
0.01053813 0.26092091 -0.54491228 2957982767
0.0039220667 0.25304386 -0.56201583 2958507057
0.0044482206 0.25307733 -0.56192791 2958967862
0.0066915415 0.25549665 -0.5559963 2958179118
0.0011446305 0.24832028 -0.56939274 2959032888
0.0053020772 0.25325209 -0.56122422 2958705207
0.0074700476 0.25684068 -0.55322188 2957916207
0.0075299102 0.25626534 -0.55443478 2958179892
0.0024189174 0.24694949 -0.57110804 2958507316
0.0010459181 0.24654379 -0.5714761 2958835512
0.0014779178 0.24645646 -0.5715875 2958769972
0.0026679514 0.24850805 -0.56901366 2958968378
0.0020180342 0.24220008 -0.57521009 2958836022
0.0011409106 0.24705122 -0.57087898 2959495244
0.010838098 0.25935942 -0.54751652 2958114353
0.0014442714 0.2430938 -0.57461184 2958769716
0.0019294188 0.2429629 -0.57467228 2958835509
0.0026144686 0.24115027 -0.57591134 2959165243
0.0024034255 0.24981612 -0.56755537 2958573877
0.016944779 0.26941529 -0.52853858 2958114609
0.002025981 0.24247257 -0.57495785 2958967864
0.035397813 0.27277675 -0.49754089 2962067533
0.0016682652 0.24325123 -0.57447308 2958770229
0.011314686 0.26133415 -0.54378772 2958311730
0.0013871192 0.24948183 -0.56798506 2958573363
0.011097724 0.2610397 -0.54437941 2958114609
0.031799462 0.27996072 -0.49725795 2962067790
0.0012836929 0.24767581 -0.57010418 2959889227
0.0025128357 0.25106537 -0.56556261 2958507313
0.011583376 0.26266369 -0.54133105 2958113842
0.0099382605 0.2602649 -0.54598761 2958377272
0.002075668 0.24514955 -0.57286608 2958572853
0.031440645 0.28043118 -0.49680588 2962067531
0.0016838724 0.24351943 -0.57421279 2958902074
0.0019424652 0.24620411 -0.57179481 2958572595
0.0088543175 0.25736704 -0.55185497 2957522479
0.011821104 0.2620981 -0.54234087 2958244913
0.0014171163 0.24154072 -0.57568413 2959297343
0.035604328 0.27287874 -0.49773541 2962067534
0.012756418 0.26331699 -0.53983742 2958180145
0.007608599 0.25570196 -0.55520558 2958047793
0.0025918684 0.24144514 -0.57568651 2959033914
0.020396659 0.2731359 -0.52100897 2958576952
0.0036422054 0.25288004 -0.56221765 2958507057
0.0096454658 0.25903729 -0.54836291 2958113583
0.006433446 0.25616384 -0.55461532 2958245683
0.016213203 0.26831877 -0.53061664 2958050098
0.011885892 0.26164606 -0.54307294 2958245679
