# .PCD v0.7 - Point Cloud Data file format
VERSION 0.7
FIELDS x y z rgb
SIZE 4 4 4 4
TYPE F F F U
COUNT 1 1 1 1
WIDTH 1073
HEIGHT 1
VIEWPOINT 0 0 0 1 0 0 0
POINTS 1073
DATA ascii
0.094372444 0.19098581 -0.64022636 547925588
0.042538524 0.19254822 -0.62017626 549176164
0.057022914 0.18286929 -0.6182847 548056405
0.061328355 0.17736675 -0.61999393 549306980
0.11823329 0.19606455 -0.65061414 547137679
0.044513311 0.18846896 -0.6225909 549438309
0.025854528 0.20877577 -0.62707007 548649824
0.036652822 0.19445008 -0.62308222 549176166
0.028568037 0.20579746 -0.62670135 548321119
0.045307666 0.189348 -0.62172264 549504872
0.009684829 0.21161866 -0.62541032 548056922
0.074566238 0.1723967 -0.61735886 549043548
0.092435092 0.17740792 -0.62626123 546806096
0.066517979 0.17609724 -0.61575824 549306978
0.0115731 0.20803599 -0.62725502 549109346
0.065709732 0.17604493 -0.61629903 548583002
0.11856437 0.19730222 -0.64640182 547269265
0.095957421 0.18125255 -0.62838447 546543185
0.08890485 0.16811752 -0.61572945 547595086
0.12113354 0.19780611 -0.64482915 547006353
0.090254106 0.1698868 -0.61971897 546805325
0.01512466 0.21045533 -0.62670815 548649569
0.10041354 0.1887753 -0.63685167 546872659
0.090259165 0.17194992 -0.62217104 546740301
0.024680607 0.20423903 -0.62770003 547991380
0.096242875 0.18200395 -0.62907302 546542925
0.037585855 0.19360945 -0.62270975 548452699
0.025852876 0.20609023 -0.62736112 548386138
0.064481325 0.17735958 -0.61614853 548320087
0.028398024 0.20700698 -0.62669396 548123484
0.092457652 0.1733876 -0.62270969 546477136
0.033417661 0.19565904 -0.62471712 548912990
0.052555695 0.18822385 -0.62483132 549307492
0.014651531 0.20874768 -0.62727648 549044320
0.11627339 0.1968417 -0.64635134 547598231
0.060701672 0.18067181 -0.61644107 549241444
0.05368828 0.18615572 -0.61797738 549241445
0.094120495 0.18018472 -0.62816161 546477390
0.091195375 0.1820609 -0.63142264 547201106
0.085301764 0.17000294 -0.61526871 547924563
0.037249379 0.19468546 -0.62276071 548584028
0.095553957 0.18592651 -0.63387322 547398483
0.010909529 0.21200497 -0.62550402 547925589
0.026338521 0.20618187 -0.62727237 548189273
0.11160089 0.19605932 -0.64361602 548190362
0.037178949 0.19433092 -0.62280536 548518492
0.1278339 0.19767645 -0.63856113 545096824
0.11557652 0.19562811 -0.64948046 547729558
0.035054229 0.19964886 -0.62367672 548254553
0.12355764 0.19787607 -0.64491856 546545803
0.053337757 0.18728688 -0.62291074 548583516
0.092802353 0.17681332 -0.62550366 546740305
0.067248933 0.17606655 -0.61553955 549306977
0.02638538 0.20361257 -0.62742394 548451673
0.01843687 0.20644683 -0.62781578 548781150
0.030723497 0.20282929 -0.62591445 548847200
0.11085146 0.19405003 -0.64685333 547860882
0.10729608 0.18899161 -0.63654315 546477935
0.029563867 0.20503904 -0.62638706 547991642
0.046161655 0.18816394 -0.62285614 548649561
0.11145789 0.19598821 -0.64385915 548124826
0.031990133 0.20082048 -0.62534297 548386393
0.098708741 0.19347975 -0.6427561 548122968
0.043064505 0.19227597 -0.62011486 549308006
0.011628795 0.21055843 -0.62632447 548189019
0.063970484 0.17536756 -0.61928231 548517210
0.090503745 0.17597882 -0.62616497 546806095
0.051260579 0.18862461 -0.6200096 548714843
0.10916441 0.19310409 -0.64462131 547268479
0.027584083 0.20465735 -0.62705523 548188761
0.094269589 0.16859649 -0.61729467 544896325
0.11742847 0.19601467 -0.6496889 547335059
0.015611236 0.21061802 -0.62668973 548583517
0.12288824 0.19784619 -0.64288908 546348164
0.056773391 0.18395191 -0.62358791 547596115
0.036847223 0.19539918 -0.62285775 548781407
0.038964424 0.19627073 -0.62141395 548913249
0.014601634 0.211775 -0.62613654 548517980
0.062408376 0.17965916 -0.61573011 549241443
0.096263506 0.18897249 -0.63753629 547464534
0.035979502 0.19381921 -0.62341332 549110372
0.02119164 0.20988986 -0.62718588 548583773
0.085836418 0.1689797 -0.61895722 547990101
0.0099174036 0.20816062 -0.62742698 548912481
0.011264029 0.21170814 -0.62566578 547991128
0.091950573 0.16756915 -0.61665726 546805326
0.099461816 0.19402169 -0.64339513 547662422
0.03304765 0.1975577 -0.62474442 549044579
0.033615857 0.19898379 -0.62438148 548649566
0.017068835 0.20633705 -0.62790936 548978014
0.062735341 0.17947488 -0.6156792 548912479
0.011640104 0.20981562 -0.6266185 547991641
0.11284025 0.19650805 -0.6443581 547861398
0.092329979 0.18096539 -0.62978506 547398742
0.12354257 0.1964547 -0.6521942 546545032
0.12526639 0.19728565 -0.65010369 546084484
0.031208498 0.19957155 -0.62574679 548649563
0.019382071 0.20898032 -0.62740797 549044579
0.057454582 0.18207528 -0.61895567 547859285
0.031770028 0.19758445 -0.62535679 548649052
0.12427814 0.19800609 -0.64010352 546281606
0.042280171 0.19002487 -0.62169212 549439334
0.034139972 0.20140776 -0.62416315 548386654
0.12965222 0.19722798 -0.63546222 544175469
0.10123464 0.18416862 -0.63076991 546280530
0.10626293 0.19215392 -0.64267164 546609240
0.11958548 0.19675128 -0.64895296 547006094
0.12985116 0.19707157 -0.63660115 543846246
0.096456826 0.1811517 -0.62805915 546740818
0.057259325 0.1819178 -0.61993128 547661651
0.12419909 0.19757289 -0.64900911 546281604
0.08014141 0.17237051 -0.6164825 547463502
0.043170109 0.19140035 -0.62053096 549307748
0.028469583 0.20729995 -0.62664276 548189276
0.062551633 0.17770728 -0.61746478 548912479
0.10878564 0.19294597 -0.64233398 547465861
0.029583616 0.2010787 -0.62642491 548649306
0.027087098 0.20266598 -0.62721264 548781149
0.023996016 0.20601556 -0.62765896 548385882
0.022546098 0.20570548 -0.62788713 548715874
0.04201097 0.19143945 -0.62093306 549044577
0.013608896 0.21052389 -0.62660116 548320346
0.063006081 0.17902441 -0.61580718 548978529
0.12439057 0.1976051 -0.64875621 546281861
0.13126285 0.19642913 -0.6372301 543451488
0.020828627 0.20854679 -0.62749863 548715615
0.072430879 0.17542824 -0.61533064 549109599
0.12359992 0.19786605 -0.64527762 546545803
0.095334619 0.17904814 -0.62643009 546477391
0.027197128 0.20775628 -0.62694669 548123225
0.1092423 0.19362178 -0.6433515 547400065
0.022635449 0.20602982 -0.62786496 548847460
0.11188781 0.19501188 -0.64854509 547597967
0.11164057 0.19487482 -0.64673644 547532174
0.038839079 0.19564192 -0.62156826 548912993
0.099806704 0.19453731 -0.64421791 547596884
0.022157433 0.20931268 -0.62731057 548517982
0.096384451 0.18842953 -0.63679802 547530325
0.1029821 0.19175391 -0.64102513 546675283
0.12290867 0.19786702 -0.64327729 546677131
0.047875162 0.18820316 -0.62304705 549570407
0.12749229 0.19790864 -0.64434743 545558143
0.037946478 0.19127841 -0.62309271 548978017
0.1126176 0.19645944 -0.64425129 548059033
0.015746051 0.20721883 -0.62759644 549044323
0.11913022 0.19690894 -0.64827752 547006094
0.10320535 0.19044223 -0.63936776 546608978
0.087878652 0.17473552 -0.62601203 547134801
0.12285495 0.19737807 -0.6484434 546808460
0.11870465 0.19623634 -0.64992082 547203473
0.12553646 0.19765683 -0.64846766 545821312
0.036670938 0.19317162 -0.6231243 548584540
0.12701759 0.19791527 -0.63734776 544833909
0.017898213 0.21010111 -0.6269629 548123225
0.051472411 0.1887591 -0.62276495 549307750
0.067203552 0.17451239 -0.61678201 548978014
0.024343295 0.20647864 -0.62751973 548517725
0.012998442 0.21154515 -0.62605804 548451932
0.120013 0.19610584 -0.65182054 546874508
0.028124383 0.20302704 -0.62687123 548649823
0.046331577 0.18996234 -0.6210683 549834093
0.060663901 0.17808929 -0.62033862 548319833
0.018374033 0.20777689 -0.6276415 548978531
0.048659183 0.19015902 -0.62119925 549702506
0.13194987 0.19622594 -0.63642997 543319390
0.066400327 0.17439012 -0.61726314 548978014
0.024654575 0.20501572 -0.62768447 548123223
0.066992253 0.17514747 -0.61639166 548978014
0.11578117 0.195691 -0.64959013 547532178
0.11845954 0.19623357 -0.64984477 547071886
0.060789417 0.17847496 -0.61832774 548714590
0.041805513 0.19051206 -0.62157112 548978783
0.09489961 0.18087757 -0.62855333 546806097
0.022070749 0.20900384 -0.62733638 548452190
0.12468693 0.19786599 -0.64048076 546216070
0.12946616 0.19733541 -0.63874084 544570737
0.031345408 0.20341372 -0.62560695 548584286
0.055302043 0.18418549 -0.61996442 548319576
0.072960548 0.17175016 -0.61803615 548780119
0.028799541 0.20674229 -0.6265977 547860055
0.11910556 0.19709583 -0.64741486 547203216
0.02219951 0.20778883 -0.62760949 548649313
0.11994714 0.19628736 -0.65065932 546940300
0.080616772 0.16968822 -0.61834985 547990354
0.10498137 0.18481694 -0.63243544 545227605
0.015039464 0.20779718 -0.62753528 549307494
0.058393344 0.18040304 -0.61987299 547990872
0.12621379 0.19797769 -0.63795507 545360249
0.042227194 0.18977764 -0.62183982 549241956
0.11657235 0.19698323 -0.64587796 547598230
0.12304876 0.19745013 -0.64856076 546413447
0.068579353 0.17562857 -0.61559129 549240927
0.1215763 0.19635735 -0.65088236 547005582
0.02960786 0.20422883 -0.62638122 548847459
0.1111669 0.19519258 -0.64551038 547795345
0.052816909 0.18688858 -0.62021703 547991124
0.062148381 0.17892987 -0.61669493 548780891
0.12244172 0.1972656 -0.64822656 546874252
0.11919016 0.19646102 -0.64959073 547006093
0.12724485 0.19783325 -0.6434738 545360506
0.10722014 0.18848062 -0.63795143 546148449
0.015519439 0.20793636 -0.62749398 549110375
0.11666441 0.19692716 -0.64620084 547400849
0.077251859 0.17003146 -0.61884969 548319315
0.013712592 0.21171387 -0.6261152 548319578
0.098182149 0.18587838 -0.6331414 546675279
0.068395428 0.174862 -0.61617684 549175135
0.018786993 0.20765415 -0.62767041 548978532
0.060126141 0.18019179 -0.61748892 548517724
0.04791788 0.19049335 -0.6205076 549570151
0.12213861 0.19693378 -0.64953941 546808461
0.12256134 0.19685373 -0.65059054 546676875
0.016934432 0.2114035 -0.62653738 548649824
0.094499014 0.17344363 -0.62126577 546345293
0.1127537 0.19654381 -0.6440177 547993240
0.021480441 0.21012086 -0.62715983 548320604
0.029790686 0.19881693 -0.62634087 548781149
0.016662754 0.21121128 -0.62659627 548715618
0.11234875 0.19638276 -0.64376247 547993241
0.023351805 0.20357084 -0.62800175 548912736
0.11396258 0.19583434 -0.64785141 547598225
0.064743586 0.17816544 -0.61522448 548714588
0.046584591 0.18866833 -0.62229943 549636712
0.068720944 0.17241316 -0.61848676 548846170
0.12569052 0.19800921 -0.64496952 546150279
0.053855117 0.18672684 -0.62299865 548122968
0.012435742 0.2111212 -0.62613589 548254555
0.12221728 0.19670856 -0.6506986 546610825
0.018918093 0.20496793 -0.62801915 548912478
0.072415493 0.17243004 -0.61756694 548648535
0.094133444 0.16704851 -0.61600733 545686858
0.030839568 0.20539965 -0.62578893 548517983
0.12955043 0.19761167 -0.64471394 544965494
0.092893623 0.18256469 -0.63119572 547333204
0.089859121 0.17563702 -0.62610573 546806612
0.038651884 0.19064891 -0.62317371 548978273
0.026613396 0.20635757 -0.62718713 547991382
0.12310259 0.19634226 -0.65165395 546544775
0.1105982 0.19488387 -0.645096 547531655
0.099756479 0.18760289 -0.63536024 546609487
0.11614455 0.19674261 -0.64656997 547466899
0.024083123 0.20459732 -0.62779623 548386137
0.010238701 0.21040542 -0.62607503 548320349
0.10068839 0.19252437 -0.64161438 547267412
0.025880767 0.20709878 -0.62725335 548255067
0.024856098 0.20490405 -0.62765861 548189015
0.089750171 0.17644826 -0.62708688 546740301
0.12511438 0.19791174 -0.63989043 545755264
0.12509945 0.19745642 -0.64985764 546150533
0.089954227 0.17243327 -0.62286717 547069520
0.13005449 0.19693442 -0.63814473 544570480
0.075763233 0.17043701 -0.61911976 548582229
0.058460169 0.18231398 -0.61708993 547990869
0.072913401 0.17449443 -0.61599493 549109086
0.013955621 0.20705022 -0.6278038 548649308
0.051900782 0.18874986 -0.62573177 549373286
0.028075883 0.20185308 -0.62688392 548781151
0.1229159 0.19676122 -0.65095091 546610825
0.034364454 0.19514254 -0.62427664 548583259
0.013235884 0.21079582 -0.62641132 548122968
0.10689721 0.18663262 -0.63449866 545687651
0.12227075 0.19756977 -0.6467191 546940302
0.12996124 0.19699337 -0.63737029 544307053
0.12833546 0.19790795 -0.64568746 545228665
0.040535487 0.192733 -0.62115765 549175650
0.09444987 0.17269725 -0.62064958 545094215
0.12660134 0.1979181 -0.64261431 545360764
0.010312693 0.20891543 -0.62697077 548977760
0.067265525 0.17475881 -0.61658156 549240929
0.10194439 0.19028434 -0.63886225 546609234
0.09114109 0.1740582 -0.62407255 546805583
0.024556527 0.20465337 -0.62767863 548189015
0.049807739 0.18941762 -0.62277734 549570920
0.049224656 0.18823491 -0.62383473 549439076
0.10941077 0.19325002 -0.64514363 547400324
0.036912467 0.19167727 -0.62342441 548912993
0.11812106 0.19707088 -0.64709657 547203472
0.050277956 0.18955509 -0.62157291 549504872
0.11329938 0.19570422 -0.64755005 547729811
0.024049168 0.20533802 -0.62775302 548386137
0.033773806 0.19731571 -0.62444532 548518234
0.036214724 0.19233502 -0.62371027 549044835
0.10658759 0.19188637 -0.64221847 547004262
0.12769334 0.19775267 -0.63739979 544899187
0.081056751 0.16897823 -0.6191994 547924819
0.12240876 0.19616699 -0.65258902 546742411
0.10325222 0.19174065 -0.64109659 546609490
0.010114528 0.21081999 -0.62578058 548188763
0.039721794 0.19437656 -0.62116432 548781151
0.034113839 0.1988941 -0.62412757 548386139
0.07106787 0.17406231 -0.61635357 549635685
0.12251264 0.19758312 -0.6468035 546742669
0.10401189 0.19043732 -0.63960773 546609501
0.075469024 0.17155626 -0.6178149 548911706
0.027653199 0.20303719 -0.62704968 548584029
0.064611472 0.17776951 -0.61569291 548385880
0.08703649 0.170127 -0.62145942 547463247
0.081565514 0.16927983 -0.61874419 548450902
0.10750491 0.1897736 -0.63761294 546938486
0.012639032 0.20942654 -0.62690681 548583775
0.063874125 0.17800209 -0.61606783 548451674
0.10056887 0.19365674 -0.64311945 547333718
0.017428193 0.21158201 -0.62653363 548517723
0.042380638 0.19046515 -0.62135214 549505129
0.12063121 0.1976245 -0.64557362 546874766
0.024599694 0.20218438 -0.62763286 548320343
0.12255885 0.19703288 -0.64974564 546808461
0.11643487 0.19581841 -0.6498844 547466642
0.084900104 0.17025223 -0.6153487 547858513
0.038591463 0.19302368 -0.62220913 548846944
0.032433309 0.1959341 -0.62528068 549373285
0.13075507 0.19675012 -0.63818502 544570224
0.021822851 0.20973013 -0.6272465 548320348
0.12399879 0.19686295 -0.65070492 546347653
0.079674877 0.16932465 -0.6190452 548121937
0.025636453 0.20792235 -0.62723058 548649825
0.088284597 0.16843979 -0.61535478 547660878
0.095176563 0.19068345 -0.63990164 547991385
0.11766372 0.19603178 -0.64977318 547269263
0.086879455 0.16915199 -0.61505842 547792722
0.095361933 0.18085867 -0.62828451 546543183
0.047777064 0.18786557 -0.62347186 549372518
0.013437768 0.20830418 -0.62744296 548781151
0.10045234 0.19100975 -0.63968092 546872660
0.010917378 0.20865281 -0.62724048 548978017
0.061303075 0.17880832 -0.61755019 549109599
0.009427811 0.20798843 -0.62743592 548386140
0.10477137 0.18621197 -0.63427258 545951059
0.1071655 0.19194277 -0.64277971 546412129
0.080803819 0.17179696 -0.61665469 547661134
0.011129119 0.20949423 -0.62679535 548583520
0.056034908 0.18433528 -0.61759704 548517467
0.026559766 0.20150061 -0.62740022 548846687
0.038503855 0.19676611 -0.6216805 548979043
0.085992567 0.16909193 -0.6195147 547924307
0.011466763 0.21079308 -0.62616873 548254556
0.11849637 0.19660425 -0.64883757 547269264
0.027465608 0.20791475 -0.62684625 548189018
0.093646266 0.16648611 -0.61540645 545752904
0.11137692 0.1956332 -0.64457369 547861396
0.11466174 0.19650316 -0.6466009 547729814
0.022637172 0.20943388 -0.62725079 548518241
0.1162434 0.19667785 -0.64688408 547401363
0.053962167 0.18704961 -0.62436354 548780894
0.051802155 0.18842062 -0.62223476 548714588
0.10620987 0.18831375 -0.63751268 546345563
0.01783829 0.21067607 -0.62681413 548122969
0.037461951 0.19300285 -0.62289035 548518492
0.019672267 0.20603064 -0.62786925 548978529
0.089239471 0.17009413 -0.62042379 547068754
0.12392913 0.19718094 -0.65027708 546479239
0.092325382 0.16690816 -0.61579603 546673741
0.12315073 0.19788796 -0.64336902 546479239
0.019659339 0.2108272 -0.62688756 548452185
0.027870893 0.20768797 -0.62678164 548123738
0.12286615 0.19749971 -0.64718568 546808717
0.014757196 0.21074456 -0.62653375 548451931
0.071424782 0.17261027 -0.61740679 549438306
0.021156026 0.20811065 -0.6275503 548715360
0.11644926 0.19674245 -0.64699841 547401107
0.096402369 0.18233159 -0.62938428 546675026
0.027797684 0.20072769 -0.62687606 548846687
0.025990281 0.20389429 -0.62752271 548320345
0.070980385 0.17518578 -0.61554289 549241187
0.090344056 0.16904841 -0.61865789 546936655
0.12697446 0.19778928 -0.64623868 545952899
0.1308499 0.19637014 -0.63330609 543517283
0.052052785 0.18846074 -0.6245051 549241955
0.036796946 0.19246157 -0.6233021 548584540
0.10312861 0.18840869 -0.63665527 546608980
0.035086934 0.19475359 -0.62386191 548715611
0.081031978 0.16984744 -0.61817604 548056148
0.099105455 0.19298655 -0.64216638 547926102
0.018512681 0.20746277 -0.62773502 548978532
0.057279732 0.1820747 -0.62157673 547793236
0.026002442 0.20213288 -0.62740386 548780893
0.09053921 0.16777639 -0.61639541 546806090
0.062750466 0.17604353 -0.61903059 548978272
0.030832179 0.2011794 -0.62592322 548649821
0.1170596 0.19687052 -0.64695013 547334289
0.026237916 0.20486441 -0.62743181 548254551
0.12801518 0.19775166 -0.63829321 544767603
0.077782154 0.17383367 -0.6160875 548385366
0.04154072 0.18927827 -0.62230998 549241701
0.10863183 0.19262491 -0.6416834 547202429
0.1260787 0.19760574 -0.64858991 545755005
0.13064682 0.1970159 -0.64075881 543846503
0.12680794 0.19791886 -0.64193159 545491582
0.09501224 0.17422152 -0.62162292 545488716
0.011188557 0.21058789 -0.62621468 548254556
0.13168375 0.19655587 -0.63707459 543385440
0.056267705 0.18380019 -0.62295383 547530323
0.11282572 0.19633532 -0.64489704 547927704
0.0137696 0.2119326 -0.62601388 548320344
0.11925714 0.19643259 -0.64991492 547137423
0.089742333 0.1800292 -0.63056684 547201618
0.086623706 0.16916917 -0.61976463 547858516
0.025835427 0.20781091 -0.62720013 548386396
0.037371438 0.19797176 -0.62232548 548715359
0.10834214 0.19193104 -0.64033473 547728778
0.027779872 0.2045022 -0.62699121 548320346
0.10682907 0.18622826 -0.63414794 545753443
0.023067512 0.20680362 -0.62769556 548452445
0.070369728 0.17565073 -0.61531049 549241187
0.015109651 0.21120709 -0.62642109 548320857
0.048893832 0.18796639 -0.6238851 549504868
0.10943501 0.19454408 -0.64745247 546873720
0.034345459 0.20117398 -0.62403417 548452447
0.10369199 0.1868774 -0.63485938 546477653
0.078190468 0.17034504 -0.61812174 547990354
0.11034941 0.19475882 -0.64458477 547597448
0.13415241 0.19512901 -0.63969839 541673281
0.12671566 0.19768043 -0.64816052 545821056
0.12461148 0.19764091 -0.64885247 546479240
0.0163881 0.2102198 -0.62690026 548715100
0.027417945 0.20586766 -0.62703675 548255068
0.096501961 0.19372424 -0.64293408 548188760
0.018263793 0.20584653 -0.62789649 548978269
0.12856799 0.19777656 -0.64345837 545360764
0.10036106 0.19425353 -0.6438427 547333460
0.010876381 0.21107747 -0.62592369 548320349
0.12479535 0.19780385 -0.64699 546281863
0.018752329 0.2091313 -0.62733811 548517980
0.10781609 0.19050799 -0.63902956 547202688
0.049832284 0.18847792 -0.62384808 549504868
0.063544303 0.1770651 -0.61726195 548715358
0.012726435 0.20893204 -0.62713116 548583774
0.12421224 0.19786118 -0.64651299 546413450
0.026388016 0.20818613 -0.62705523 548386395
0.1057401 0.19215554 -0.64251488 546609237
0.01921048 0.20596114 -0.62797362 548715099
0.12358024 0.19791012 -0.64279181 546084996
0.11303718 0.19524667 -0.64809859 547729556
0.068846278 0.17530228 -0.61582947 549307232
0.10565366 0.18832317 -0.63735187 546411865
0.10911102 0.19340803 -0.6431427 547334273
0.05553738 0.1840305 -0.62029433 548254039
0.083263412 0.16901739 -0.61905587 548253522
0.094567955 0.16821083 -0.61662775 545357897
0.12982786 0.19722708 -0.63874942 544570224
0.031388208 0.2014538 -0.62566352 548649822
0.011365225 0.20874253 -0.62715518 548978016
0.075243033 0.17222543 -0.61743003 548977498
0.013484257 0.21006289 -0.6267845 548386140
0.032983378 0.1996109 -0.62468731 548057430
0.057076816 0.1823408 -0.61943686 547859286
0.0099285552 0.20829126 -0.62724262 548978017
0.09535715 0.18572491 -0.63365561 547267154
0.02968571 0.20048165 -0.62631142 548649307
0.030004073 0.20388272 -0.62622225 548846943
0.028850595 0.20207174 -0.62665945 548715360
0.10205346 0.19357346 -0.64317077 547004244
0.067940794 0.17445515 -0.61654836 549109601
0.12407458 0.19786884 -0.64507025 546480010
0.13289268 0.19557786 -0.6385352 542726740
0.024459528 0.20867217 -0.62717903 548715360
0.051221535 0.18858685 -0.62435055 549768045
0.10801671 0.1910727 -0.64166808 546872947
0.11101013 0.19577929 -0.64320874 547992725
0.098526344 0.18547164 -0.63254315 546675025
0.015806256 0.20664032 -0.62775892 548978273
0.010565273 0.21081083 -0.62590986 548385886
0.12266022 0.19799705 -0.64185238 546677132
0.11368586 0.19539796 -0.64841044 547335055
0.044159256 0.1883429 -0.62309486 548846942
0.098044701 0.19347715 -0.6428836 548057432
0.027480328 0.20234236 -0.62708187 548847198
0.089211628 0.16902757 -0.6187306 546936910
0.05454018 0.18628494 -0.62395579 548188247
0.065776147 0.17624776 -0.61606747 548583002
0.10869288 0.19231889 -0.64319086 547267709
0.028156767 0.20218547 -0.62685245 548780895
0.054106459 0.1854877 -0.62062728 548056406
0.066306181 0.17674141 -0.61537886 549306978
0.10768861 0.19025949 -0.63769722 547136382
0.074645646 0.17131555 -0.61821228 548714581
0.12460247 0.19776876 -0.64724821 546281863
0.018967552 0.20991401 -0.62713546 548583773
0.12938997 0.19755429 -0.64086956 544438895
0.1297148 0.19745988 -0.64049673 545031032
0.034520183 0.19461891 -0.62425804 548715357
0.11991289 0.19724049 -0.64710128 546808459
0.050699081 0.18919921 -0.62030417 549241699
0.019549822 0.20477915 -0.62806743 548715355
0.043116573 0.19114697 -0.62067467 549307749
0.078509778 0.17219406 -0.61712939 547924305
0.12826775 0.19793467 -0.64496964 545294459
0.12429012 0.19769098 -0.64845765 546347911
0.052595235 0.18783215 -0.62237912 548714843
0.12609082 0.19779643 -0.64772314 545821569
0.012473854 0.20810679 -0.62729061 548517721
0.06678699 0.17573693 -0.61596835 549044061
0.011190022 0.20807779 -0.62746048 549043810
0.073855087 0.17400862 -0.61631459 549109341
0.01815993 0.20625158 -0.62787873 548715101
0.12342206 0.19771041 -0.64718539 546611083
0.10900366 0.19354241 -0.64077538 548124049
0.035166889 0.19514449 -0.6238507 548847199
0.092936419 0.17426404 -0.62312984 546673743
0.055248652 0.18444997 -0.61862248 548385626
0.064817138 0.17715646 -0.61608845 548385881
0.093270868 0.17679459 -0.62522584 546082126
0.11642167 0.19624263 -0.64891076 547466642
0.12791057 0.19788826 -0.64660835 545294458
0.046534255 0.18846241 -0.62248421 549505128
0.10863685 0.1921075 -0.64335167 547136377
0.07962849 0.17338699 -0.61585498 547990356
0.10494047 0.19481486 -0.64597696 546609240
0.018094005 0.20757133 -0.62769359 548912739
0.1261311 0.19792494 -0.64321542 545491837
0.082519896 0.16964115 -0.61804205 548187989
0.095406562 0.18359837 -0.63124835 547267155
0.1073967 0.19012882 -0.64038879 546807149
0.04927386 0.18838193 -0.62360603 549504869
0.059357971 0.1793863 -0.61938298 547793491
0.11279689 0.19618559 -0.64544612 547993239
0.016404329 0.20632032 -0.62798941 548846685
0.035553828 0.19953328 -0.62339532 548057686
0.029320616 0.20599173 -0.62645596 547597140
0.019414285 0.20588507 -0.62797654 549044322
0.0859304 0.16948006 -0.62063295 547397709
0.010072066 0.20976233 -0.62639451 548583263
0.095260039 0.18324879 -0.63092762 547332948
0.12323985 0.19766618 -0.6474371 546742924
0.056631677 0.18273303 -0.62037414 547661649
0.097354069 0.18223943 -0.62881267 546608467
0.12437998 0.19784696 -0.64549893 546479498
0.13319547 0.19623883 -0.64082313 542068552
0.032573242 0.19890749 -0.62499583 548583256
0.052661825 0.18808034 -0.62404048 548912479
0.11955845 0.19731988 -0.64671808 547071376
0.1312746 0.19688594 -0.64044291 543714404
0.040284526 0.19291064 -0.62122393 549373286
0.053755358 0.18566498 -0.61914319 548517468
0.096285395 0.1808401 -0.62775624 546608721
0.12563588 0.19788492 -0.63964117 545360507
0.085483395 0.16942759 -0.62087494 547529039
0.014304266 0.20908499 -0.62714171 548912736
0.12502144 0.19728185 -0.65002686 546216326
0.12284666 0.19725491 -0.64967811 546808461
0.014719291 0.2089923 -0.62719411 548978527
0.01477584 0.20921312 -0.62709087 548978528
0.013125628 0.20959049 -0.62688947 548320604
0.025121832 0.20324978 -0.62768382 548255063
0.11281265 0.19502008 -0.64850771 547729812
0.092266575 0.16763073 -0.6168021 546805327
0.013344271 0.20800747 -0.62747747 548649050
0.093919508 0.18607077 -0.63458925 547333202
0.022428792 0.20610982 -0.62786484 548781667
0.094410196 0.19000901 -0.63915962 547662161
0.063758172 0.17635326 -0.6175788 548516951
0.024232592 0.20340891 -0.62784165 548452444
0.10626453 0.18679656 -0.63557404 546016611
0.12909302 0.19759141 -0.64081287 544636531
0.029847881 0.20322374 -0.62628466 548649567
0.10006163 0.19453256 -0.64429104 547531092
0.02976471 0.20287471 -0.62629998 548846946
0.076668136 0.17212704 -0.6173647 548977499
0.075267926 0.17393368 -0.61625874 548648535
0.093239143 0.1789391 -0.62730759 546674510
0.019135522 0.20728202 -0.6277827 549044325
0.049653344 0.18876399 -0.62330049 549439077
0.021349473 0.2071522 -0.62775242 549307497
0.024253577 0.20875213 -0.62718207 548715617
0.10747437 0.18966441 -0.637146 547135094
0.017769475 0.20880663 -0.62737846 548846945
0.028733673 0.20454566 -0.62668717 548452448
0.12219147 0.19762367 -0.64639407 546742668
0.06686569 0.17467694 -0.61680835 549043807
0.1240507 0.1976779 -0.64837432 546216325
0.022747781 0.20816451 -0.62747031 548583776
0.069730356 0.17444429 -0.61625093 549438819
0.033267379 0.19856721 -0.62460953 548584029
0.025713576 0.20282879 -0.62753999 548451673
0.037939928 0.19396999 -0.62240708 548913249
0.12137922 0.19612868 -0.65161234 547005838
0.10347967 0.18515809 -0.63264477 546082646
0.074230954 0.1724693 -0.61731428 549043547
0.053748295 0.18623483 -0.62147909 548254555
0.10574022 0.18672408 -0.63535684 545950816
0.1071571 0.18840824 -0.63639814 545885284
0.062075682 0.1799136 -0.61583591 548912222
0.11657113 0.19610402 -0.64917469 547598228
0.080388337 0.17034417 -0.61794353 547924558
0.048358884 0.1890692 -0.62242794 549439332
0.10536835 0.19435352 -0.64542955 546675290
0.033105597 0.20131972 -0.6247738 548452190
0.12169237 0.19761488 -0.64623564 546874507
0.096121706 0.18157819 -0.62869567 546477648
0.095691875 0.17854643 -0.6257301 546740054
0.074198909 0.1738887 -0.61632293 548846424
0.13203894 0.19624951 -0.63890433 543714404
0.011188807 0.2097175 -0.62669706 548123226
0.095780715 0.19084619 -0.63986707 547925590
0.099694401 0.18397984 -0.63054037 546675026
0.069373019 0.17282407 -0.61736465 549438306
0.12273946 0.19712025 -0.64986938 546742667
0.096853815 0.19031072 -0.63909477 547728214
0.099616028 0.18895864 -0.63711542 546806863
0.096107364 0.17867717 -0.62555391 546016077
0.10803645 0.19123568 -0.63896203 547399809
0.12252348 0.19775277 -0.64590847 546742669
0.12244654 0.19789366 -0.64388096 546611339
0.11111788 0.19461271 -0.6467061 547729553
0.0486628 0.18806484 -0.62353569 549504868
0.029871674 0.20632112 -0.62625796 548188762
0.021333706 0.20957929 -0.62727797 548452190
0.10000122 0.18572678 -0.63281524 546675278
0.045883302 0.18816647 -0.62277406 549044316
0.11488819 0.19685987 -0.64526683 547664278
0.023300884 0.20855343 -0.62734324 548847462
0.1183168 0.19693318 -0.64771658 547137422
0.073550612 0.1726734 -0.61726743 548977240
0.028335281 0.20484732 -0.6268084 548386655
0.073690496 0.17121913 -0.61908478 548779863
0.084886216 0.16916692 -0.61753201 548253527
0.10447537 0.19459683 -0.64534527 546609241
0.030296532 0.20512342 -0.62603962 548584288
0.0091598257 0.20856152 -0.6272161 548385883
0.052473377 0.18751049 -0.6209805 548320600
0.021515099 0.20860325 -0.62745041 548452191
0.095239982 0.18432604 -0.63214988 547135312
0.017257553 0.20623311 -0.62788707 548912479
0.073518172 0.17409459 -0.61628079 548845913
0.059801552 0.18047412 -0.61761463 548517724
0.037598141 0.19502674 -0.62244529 548518235
0.020071609 0.2090583 -0.62737906 548649823
0.049602736 0.18857624 -0.62349778 549373284
0.097778179 0.19037426 -0.6390757 547859541
0.13065621 0.1968421 -0.63784128 544504431
0.052061588 0.18774115 -0.61991596 548583517
0.013716825 0.21095081 -0.62638587 548320345
0.095704421 0.18838851 -0.63691634 547333457
0.067639895 0.17622557 -0.61536747 549175647
0.010709391 0.20956397 -0.62672347 548517727
0.088681564 0.17459141 -0.62574911 547003216
0.065778233 0.17507286 -0.61719626 548845659
0.047233969 0.19121236 -0.61977488 549899884
0.088865504 0.17497914 -0.62609845 547002960
0.067732103 0.17269206 -0.61839902 549043807
0.034985919 0.20055519 -0.62372065 548254810
0.018466631 0.20891014 -0.62737381 548583773
0.12425061 0.19770013 -0.64811337 546216325
0.08467675 0.1695158 -0.62111306 547792467
0.051673915 0.18837614 -0.62502974 549373542
0.1016935 0.18873903 -0.63684815 546675024
0.051594991 0.18825483 -0.61943418 548649307
0.080280334 0.17285134 -0.61605042 547792721
0.1240921 0.19795042 -0.64037544 546281862
0.038537741 0.19277252 -0.62234533 548912480
0.1193258 0.19729391 -0.64662623 547137680
0.022771088 0.20909145 -0.62731594 548584034
0.12654975 0.19791399 -0.64184844 545425789
0.1319266 0.19642101 -0.63982069 543780196
0.11863382 0.19669221 -0.6486181 547334801
0.071537904 0.17319088 -0.61706239 549373027
0.12751171 0.19777235 -0.63894576 544965238
0.052435052 0.18818539 -0.62369406 548912738
0.075683452 0.1709462 -0.61824316 548977499
0.12162767 0.19673076 -0.64988405 546940045
0.11009242 0.19375722 -0.64673018 547202434
0.12554561 0.19784798 -0.64760053 546084483
0.044041649 0.19010398 -0.62121207 549570922
0.037088409 0.19792178 -0.622545 548715359
0.021519609 0.20611791 -0.62789655 548583518
0.11263697 0.19594908 -0.64621675 547795604
0.12417512 0.19668098 -0.65094286 546347653
0.12436569 0.1978593 -0.64261937 545953155
0.1012902 0.18997833 -0.63842356 546675025
0.035507478 0.19287792 -0.62390679 549176165
0.12428132 0.19788185 -0.64187342 546281863
0.12151431 0.19787188 -0.64429319 546940558
0.11428045 0.19621329 -0.64725494 547861144
0.0093981782 0.20804277 -0.62718135 548715101
0.12178075 0.19697444 -0.64879912 546808204
0.11564964 0.19560315 -0.64980501 547597714
0.094380409 0.18916944 -0.63816774 547596624
0.035053462 0.20087193 -0.62366366 548057689
0.022144588 0.20346197 -0.62785614 548780636
0.041614428 0.19370504 -0.62011433 548912992
0.032896038 0.20151053 -0.62486494 548386652
0.12520489 0.19797583 -0.6447925 546150534
0.12154911 0.19617476 -0.65137863 546676874
0.010594303 0.20912638 -0.62692916 548583262
0.11717289 0.19623196 -0.64912981 547335314
0.020667544 0.20796794 -0.62758952 548979045
0.12162614 0.1959087 -0.65215814 546611081
0.11526471 0.19583729 -0.64857417 547795606
0.017071754 0.20788784 -0.62763125 548912737
0.1082792 0.19153617 -0.64211005 547136377
0.12515584 0.19778162 -0.64811403 546018691
0.10504691 0.18622777 -0.63436884 546082132
0.086592637 0.17006512 -0.62169266 547463246
0.13405958 0.19451144 -0.63707793 541015611
0.12216642 0.19801123 -0.64208263 546413446
0.11014036 0.19403049 -0.64563143 547268998
0.03054592 0.19886053 -0.62596387 548780892
0.011395617 0.20813864 -0.62728 549043809
0.077079959 0.17043474 -0.61827314 548253523
0.079716079 0.17225961 -0.61669445 547661135
0.13232148 0.19658779 -0.64009714 543780196
0.029969757 0.20271838 -0.62623823 548715360
0.087979235 0.17067684 -0.62174916 547200849
0.1254431 0.19796136 -0.64449304 546084484
0.10476968 0.18914217 -0.63809931 546608982
0.1051199 0.18829009 -0.63716358 546346329
0.061642509 0.17737018 -0.61852384 548846430
0.12766373 0.1978353 -0.64211756 545360507
0.078164972 0.17228809 -0.61709881 548253523
0.095683068 0.18045224 -0.62766033 546608977
0.10316182 0.18908542 -0.6375674 546543188
0.020985574 0.20995265 -0.62717491 548649566
0.019002322 0.20526607 -0.62797415 548715356
0.02279141 0.2032603 -0.62789935 548846944
0.095476478 0.17633328 -0.62347168 545949773
0.020413527 0.20621315 -0.62793553 548780636
0.047392849 0.18965256 -0.6215077 549570405
0.055002727 0.18442598 -0.62006301 548253783
0.12343064 0.19755594 -0.64842474 546479239
0.052705117 0.18734892 -0.62129641 548517722
0.093256436 0.18596567 -0.63467062 547332946
0.088322669 0.17221107 -0.62343431 547200593
0.028038958 0.20268016 -0.62688792 548584286
0.041255672 0.19339602 -0.62047642 548847452
0.10216162 0.19468074 -0.64471096 547004502
0.030749097 0.19865632 -0.62586874 548583770
0.11004774 0.19514124 -0.6420477 548124566
0.12465389 0.19803454 -0.63870597 545821315
0.10017316 0.18789533 -0.63571793 546543697
0.023796529 0.20612308 -0.62768292 548385882
0.021548893 0.2103789 -0.62708914 548320603
0.060634762 0.18053769 -0.61671662 549044067
0.042799573 0.1910366 -0.62085187 549307748
0.051522125 0.18864344 -0.62232554 549307237
0.1253331 0.19776206 -0.64711815 546018436
0.020067409 0.20428291 -0.62784928 548583515
0.11075289 0.19438821 -0.64642364 547795345
0.037879713 0.19093913 -0.62315947 549109859
0.089512624 0.17624696 -0.62686169 546674001
0.045537505 0.19153973 -0.61989808 549702762
0.12850587 0.19779651 -0.64271444 545096821
0.12078358 0.19659056 -0.64984667 546874507
0.028009033 0.20352274 -0.62691218 548518494
0.11314464 0.19517839 -0.648404 547664019
0.12486174 0.19780958 -0.64198631 546347656
0.013902106 0.20998329 -0.62684768 548320604
0.030628894 0.20136422 -0.62600702 548649052
0.091464937 0.16911809 -0.61861819 546937167
0.054524336 0.18539745 -0.61800206 548781150
0.045162 0.19117382 -0.62022245 549504615
0.033607777 0.20245646 -0.62453014 548320605
0.03008849 0.20219384 -0.62617743 548649568
0.075821854 0.17323653 -0.61671788 548977755
0.019554442 0.20716716 -0.62781972 549044581
0.078871757 0.17202663 -0.61710668 547924305
0.11983795 0.19696306 -0.64853442 546940045
0.12011852 0.19611436 -0.65090048 546940044
0.016448883 0.20804775 -0.62756735 549110118
0.057957102 0.18125305 -0.61924016 547727440
0.074994907 0.17117216 -0.61820805 548911962
0.12299004 0.19711626 -0.6499418 546742668
0.084511667 0.16902858 -0.61859477 548121940
0.098177075 0.19066003 -0.63941675 547860055
0.052221816 0.18754275 -0.61866301 548319832
0.073769584 0.17203186 -0.61766881 548714327
0.024977932 0.20184796 -0.62749338 548386134
0.071397066 0.17400514 -0.61640793 549636199
0.020702615 0.20565984 -0.62789506 548912478
0.10991818 0.19415355 -0.64499098 547597190
0.12277461 0.19669075 -0.63200605 3766651773
0.053356763 0.18616384 -0.61591196 3770269795
0.074238442 0.17557158 -0.61430323 3770136923
0.12636721 0.19646618 -0.63089055 3766059124
0.11611984 0.19427437 -0.64014256 3768955029
0.057434965 0.18384007 -0.61492383 3769677403
0.050742283 0.18704703 -0.61731517 3769940830
0.12982909 0.19506393 -0.62501436 3765269614
0.11862855 0.19394818 -0.64237016 3768362894
0.11399445 0.19321612 -0.63863593 3769020819
0.066943347 0.17866281 -0.61370337 3770795877
0.09832152 0.17606108 -0.6232639 3766583626
0.076738149 0.17414756 -0.61519158 3769545301
0.10786105 0.17458868 -0.61512142 3762895160
0.066963956 0.17791119 -0.61474097 3770138205
0.1070598 0.17453675 -0.61663502 3762764601
0.047915019 0.18888381 -0.61751586 3770335586
0.054577876 0.18532355 -0.61561841 3770071903
0.093970016 0.16911086 -0.61609221 3766188360
0.12611756 0.19633122 -0.62901843 3765730158
0.11793087 0.19408736 -0.64158338 3768560788
0.052156474 0.18690819 -0.61613584 3769743195
0.12384187 0.19679925 -0.63745552 3767375750
0.061743006 0.18063793 -0.61488646 3770137951
0.12127462 0.19438843 -0.64284617 3767968394
0.12537472 0.19700007 -0.63584352 3766717565
0.10079096 0.17722826 -0.62372154 3765727045
0.10208281 0.17695555 -0.62267613 3763750720
0.082100399 0.17203687 -0.61518246 3768623695
0.091947339 0.16878077 -0.61478287 3768031309
0.1250959 0.19683167 -0.63749945 3766652027
0.10317183 0.17725781 -0.62325156 3763686457
0.099947795 0.17608811 -0.62215364 3765134403
0.10951052 0.17566982 -0.60806268 3762828853
0.12001744 0.19606803 -0.63893437 3768099723
0.097606368 0.17557077 -0.6226635 3766188356
0.12203334 0.19541927 -0.64149392 3767704967
0.058512822 0.18250822 -0.61537123 3769151062
0.10789166 0.17935982 -0.62756944 3764807248
0.12083932 0.19641684 -0.63730216 3768362899
0.11258951 0.19216087 -0.63735324 3768888974
0.11713401 0.19337848 -0.64248466 3768560015
0.057248611 0.18324564 -0.61556488 3769611866
0.12281813 0.19671011 -0.63283271 3767309955
0.056806885 0.18420862 -0.61502528 3770006366
0.12716214 0.1966919 -0.63495564 3765993843
0.09314651 0.16914013 -0.61456132 3765990211
0.071942009 0.17577524 -0.61499721 3770334816
0.12582742 0.19637446 -0.62938857 3766124915
0.10829671 0.18063049 -0.62830532 3764478291
0.096749097 0.17412548 -0.61877769 3763750205
0.12167939 0.19476752 -0.6425885 3768165262
0.12756519 0.1963425 -0.63114655 3765861487
0.11136296 0.19116887 -0.63617516 3769020299
0.10617419 0.17761254 -0.62486082 3764873305
0.12936793 0.19578147 -0.62992084 3764808289
0.070352323 0.1764333 -0.61461782 3770597732
0.05631046 0.18379793 -0.61571282 3769677144
0.095923856 0.17294355 -0.61842859 3764276026
0.12692854 0.19656345 -0.63318366 3766257016
0.08468914 0.17094079 -0.61511761 3768557647
0.09568309 0.17317739 -0.61811757 3764341562
0.12187492 0.19674182 -0.6345194 3767177855
0.11915097 0.19445722 -0.64190888 3768429201
0.063461371 0.1799022 -0.61443263 3769940314
0.12386449 0.19657941 -0.63103211 3766585723
0.12606016 0.19653261 -0.63126719 3765927538
0.046619225 0.1904566 -0.6176247 3770532965
0.094814673 0.17078552 -0.61723483 3764673592
0.12293422 0.19647539 -0.63873506 3767507334
0.12668063 0.19651335 -0.6326586 3766519673
0.11087129 0.1895031 -0.63649011 3768426874
0.076036952 0.17441998 -0.61518979 3769676886
0.13084461 0.19500168 -0.62877041 3764347484
0.074797995 0.17481726 -0.61470932 3769874264
0.12543686 0.19679147 -0.63372594 3766717565
0.044382367 0.19206683 -0.61857224 3770138722
0.050973166 0.18759896 -0.61632097 3769611355
0.11651079 0.1931043 -0.64174175 3768823957
0.096994475 0.17337321 -0.61993486 3765265727
0.12993149 0.19578595 -0.63052082 3764216153
0.11856313 0.19386576 -0.64329952 3768428944
0.054405011 0.18461937 -0.61615968 3770137952
0.12093385 0.19426362 -0.64332259 3768034188
0.1199075 0.19499838 -0.6415422 3768296589
0.1179727 0.19479115 -0.64043283 3768428688
0.10850336 0.1809721 -0.62902993 3765464915
0.10655705 0.17806683 -0.60793108 3762829109
0.11834236 0.19493036 -0.64031035 3768626068
0.13135633 0.19470657 -0.62777758 3764215899
0.12575574 0.19670345 -0.63334745 3766651516
0.13072112 0.19467592 -0.62445277 3765401200
0.10214482 0.17785284 -0.62502468 3766056264
0.096486866 0.17398885 -0.61858815 3764210235
0.10735191 0.17506225 -0.61307633 3762829109
0.092796721 0.16871566 -0.61542493 3766253382
0.10915312 0.18762793 -0.63263661 3767637617
0.11355735 0.19216825 -0.63871676 3768560525
0.10878332 0.18633558 -0.6314801 3767374186
0.12111121 0.19644554 -0.63777953 3768231568
0.10701244 0.17680925 -0.62028742 3764017240
0.083216853 0.17152666 -0.61512536 3768557903
0.11486935 0.19331944 -0.64003545 3768691601
0.097540349 0.17451221 -0.61932975 3763684926
0.11420289 0.19307353 -0.63928729 3768955028
0.045351852 0.19052067 -0.61837572 3770533477
0.10812701 0.17470863 -0.61530763 3762895674
0.10104053 0.17735049 -0.62389404 3765529922
0.08946161 0.16930589 -0.61529917 3768820560
0.070605181 0.1761694 -0.61489654 3770071904
0.10538059 0.17548724 -0.61954743 3762830651
0.043698773 0.19340423 -0.61870486 3770204256
0.043642513 0.19310151 -0.61880445 3770467943
0.099158637 0.17595878 -0.62303495 3766385479
0.11870482 0.19436991 -0.64170253 3768428944
0.062229242 0.18017823 -0.615466 3770006364
0.095622927 0.17196867 -0.61925244 3765989445
0.12719139 0.19594274 -0.6272673 3765664108
0.12055713 0.19633076 -0.63896483 3768165260
0.12735108 0.19680433 -0.63550782 3765927796
0.13169788 0.19500068 -0.62946463 3764347228
0.091212347 0.16898787 -0.61472166 3768097102
0.10434727 0.17736709 -0.62369901 3764741720
0.10498141 0.1775564 -0.62445134 3764281167
0.1215869 0.19654343 -0.6383779 3767770763
0.131975 0.19417416 -0.62249827 3765071722
0.10762565 0.17553383 -0.61170578 3762894901
0.06365224 0.17936608 -0.61486918 3769874781
0.12755491 0.19639693 -0.63201302 3765993587
0.12652972 0.19683433 -0.6352796 3766256759
0.086122274 0.17043553 -0.61430609 3768623438
0.048199642 0.18872865 -0.61748129 3770401122
0.035569459 0.2006015 -0.62259299 3768888147
0.10256947 0.17798539 -0.62486237 3765727049
0.12529039 0.19686043 -0.63683295 3766651773
0.065267809 0.17942742 -0.61380053 3769874523
0.079348043 0.17401545 -0.61379123 3768492108
0.12127675 0.19443271 -0.64322168 3768099982
0.05575224 0.18433802 -0.61558211 3769743194
0.11079184 0.18899088 -0.63677794 3768361081
0.12916385 0.19608814 -0.63181293 3765202789
0.071041137 0.1761256 -0.61458683 3770203743
0.12079352 0.19664173 -0.63599622 3767704712
0.021485375 0.21007298 -0.62632734 3769677661
0.096520588 0.17297825 -0.61947989 3765265991
0.093980916 0.16999067 -0.61592436 3764410422
0.13030949 0.19480287 -0.62400126 3765269615
0.10828114 0.17458798 -0.61433512 3762895161
0.11484652 0.19387677 -0.63943142 3768692113
0.12653951 0.19607747 -0.62762654 3765862002
0.12334045 0.1968334 -0.63428533 3766717566
0.10864562 0.18404406 -0.63073981 3766386524
0.12653708 0.19680296 -0.63486409 3766322297
0.1373419 0.18900482 -0.61779046 3762306878
0.042597901 0.19405137 -0.61923552 3770138724
0.12953144 0.19594651 -0.63096762 3764808544
0.13031639 0.19524471 -0.6275534 3764479071
0.028980276 0.20653827 -0.62524563 3769414490
0.073619425 0.17605168 -0.614079 3769874005
0.11627169 0.19412722 -0.64041793 3769021078
0.079290375 0.17372121 -0.61396277 3768492108
0.10532188 0.17608967 -0.62087947 3763753805
0.063527077 0.1801167 -0.61422098 3770071899
0.10744406 0.17867848 -0.62609464 3764609875
0.10953005 0.18786652 -0.63405609 3767374444
0.12364302 0.19685403 -0.63517129 3766651517
0.12026037 0.19584161 -0.63953465 3768099723
0.054635648 0.18555692 -0.61543649 3769413972
0.12493823 0.19686031 -0.63519508 3766914944
0.12001757 0.19389622 -0.64343029 3768165770
0.12853235 0.19564405 -0.62652171 3764742239
0.11833467 0.19394216 -0.64193422 3768428174
0.048771281 0.18827933 -0.61730403 3770137950
0.12485827 0.196832 -0.63779968 3766652027
0.093319736 0.16911013 -0.61502665 3766253638
0.089757763 0.16982083 -0.61363018 3768755026
0.13030326 0.19479285 -0.6235342 3765071722
0.084430747 0.17159209 -0.61384439 3768162383
0.11659954 0.19341452 -0.64235008 3768626577
0.1081387 0.17696394 -0.6073727 3762829369
0.1102075 0.18816939 -0.63595665 3767703665
0.10991286 0.17597075 -0.60797685 3763293000
0.055322953 0.18411382 -0.61604428 3769742938
0.11871176 0.19597986 -0.63773263 3768297616
0.1076264 0.1789272 -0.62754256 3764544081
0.109069 0.18526153 -0.63296366 3767110503
0.11981286 0.19483428 -0.64172614 3768296589
0.12788354 0.19632974 -0.63205177 3765861489
0.084878147 0.17080265 -0.61464274 3768425806
0.10983544 0.18873398 -0.63484061 3768361852
0.095427707 0.17257898 -0.61798769 3764276025
0.12488163 0.19690175 -0.63482851 3766651772
0.077131413 0.17463976 -0.61403179 3769742167
0.097512111 0.17407291 -0.62022758 3765068353
0.11491041 0.19356006 -0.63989317 3768823443
0.038027953 0.19769332 -0.6213944 3770007136
0.087183431 0.17061271 -0.61347419 3768952659
0.13028045 0.19531764 -0.62847757 3764610400
0.094206586 0.1715682 -0.61681211 3764342584
0.11446808 0.19284526 -0.63988268 3768823441
0.099380285 0.17585979 -0.62261826 3766056519
0.096512675 0.17370228 -0.62087488 3766517321
0.12433821 0.19676282 -0.63256234 3766717564
0.06665054 0.17792442 -0.61465573 3770335329
0.077044271 0.17446893 -0.61428922 3769807959
0.057690307 0.18342932 -0.61506641 3769742939
0.12361337 0.19608188 -0.64005476 3767638919
0.13361444 0.192939 -0.62077767 3763162443
0.11627375 0.19435266 -0.63990444 3768560016
0.04650921 0.18988971 -0.61787444 3770795878
0.12416664 0.19647664 -0.630211 3766651771
0.12886226 0.19617286 -0.63301843 3765532525
0.10773478 0.17909239 -0.62731069 3764544083
0.10670168 0.17443742 -0.61733043 3762698550
0.09896455 0.17518839 -0.62072444 3764146738
0.11073388 0.18993056 -0.6360696 3768427647
0.092275985 0.16878356 -0.61575007 3767899214
0.11872213 0.19387804 -0.64268351 3768231821
0.12369093 0.19627479 -0.63988358 3766981503
0.1073807 0.17482933 -0.61380666 3762960695
0.12443101 0.19648899 -0.63030547 3766520186
0.1258743 0.19628954 -0.62890089 3765993331
0.12331213 0.19673012 -0.63260972 3766914941
0.11990101 0.19632539 -0.63730115 3768165775
0.11496745 0.19400111 -0.63921833 3768889235
0.12299164 0.19574896 -0.64135951 3767573897
0.10933361 0.18826243 -0.63320482 3767769202
0.060580179 0.18168372 -0.61456376 3770006364
0.12790334 0.1962456 -0.63074654 3765597803
0.12664485 0.1965802 -0.633111 3766388089
0.074993819 0.17481229 -0.61517781 3770137435
0.13058507 0.19485152 -0.62503552 3765138028
0.025600223 0.20821372 -0.62613332 3769875295
0.0581978 0.18266436 -0.61539787 3769151062
0.1205912 0.19603798 -0.63944483 3768297359
0.12386246 0.19684644 -0.63446045 3766783102
0.11254433 0.19191945 -0.63750052 3769086610
0.1254698 0.19664231 -0.63199967 3766388344
0.10468313 0.17800136 -0.62551671 3765729104
0.11459164 0.19252482 -0.64070255 3768757651
0.10719001 0.17651524 -0.6100806 3763092285
0.12237731 0.19480801 -0.64249009 3767639173
0.10970348 0.18717839 -0.63502884 3767505517
0.12958497 0.19540513 -0.62661219 3764544864
0.0288193 0.20583682 -0.62526345 3769085527
0.1110851 0.19055019 -0.63631237 3768822922
0.032001518 0.20347646 -0.62408286 3769546330
0.10942314 0.18857564 -0.63348526 3767769459
0.063791282 0.17974094 -0.61440587 3769808728
0.1091558 0.17631914 -0.60707432 3762829626
0.10815977 0.18033679 -0.62803018 3764478291
0.12784135 0.19581553 -0.626912 3765203560
0.11983535 0.1945648 -0.64220434 3768099981
0.08019349 0.17293753 -0.61446387 3768557647
0.10966847 0.17519601 -0.61011863 3762304312
0.13136967 0.19462217 -0.62549573 3764479071
0.079115748 0.17336126 -0.61446816 3769281878
0.10560758 0.17534432 -0.61775798 3762961464
0.10889138 0.18489179 -0.63336176 3766716002
0.11098469 0.18975528 -0.63672405 3768427904
0.12664063 0.19651446 -0.6318391 3766125173
0.12233261 0.19668834 -0.63651478 3767573640
0.10878634 0.18360518 -0.63119632 3766320733
0.06037401 0.18119238 -0.61529839 3769479511
0.12652864 0.19685841 -0.63568807 3766388860
0.1289272 0.19607925 -0.63254529 3765400684
0.12546045 0.1967085 -0.63286185 3766190710
0.11959944 0.19549991 -0.64011073 3768099723
0.037925407 0.19865368 -0.62144405 3770204001
0.11269562 0.19147156 -0.63789773 3769086350
0.10919843 0.1750665 -0.61177236 3764280659
0.12190411 0.19625512 -0.63931572 3767902090
0.11196897 0.19095032 -0.63725972 3768692109
0.058384683 0.18328279 -0.61476994 3769611099
0.074625529 0.17504053 -0.61524338 3769939800
0.10783134 0.17429526 -0.61666715 3762700351
0.11796839 0.1945627 -0.6409415 3768494995
0.11064663 0.19059746 -0.63549453 3768625543
0.10781319 0.17736037 -0.6071521 3762960955
0.056124672 0.18433589 -0.61530703 3769611354
0.076181039 0.17434239 -0.61475933 3769676629
0.12606768 0.19660041 -0.63254917 3766322551
0.081551507 0.17303865 -0.61368662 3768754770
0.1094581 0.18773112 -0.63574523 3767176807
0.12383812 0.19681205 -0.63364011 3767112577
0.026398208 0.20766474 -0.62594938 3769612125
0.1277311 0.19603635 -0.62881309 3765006182
0.12787575 0.19639863 -0.63332462 3765730159
0.12973849 0.19562386 -0.62861097 3764610656
0.11534372 0.1942063 -0.6395008 3769086360
0.097205773 0.17396817 -0.62088114 3766582858
0.077187844 0.17493632 -0.61386436 3769545048
0.030187227 0.20431304 -0.62449783 3769875039
0.067389078 0.17785084 -0.61441839 3770664036
0.12564133 0.19699648 -0.63592309 3766651772
0.1144451 0.19340271 -0.63927603 3769086612
0.11204416 0.19030742 -0.63783771 3768888200
0.11157942 0.18988423 -0.63771701 3768822407
0.10124237 0.17676926 -0.62226951 3764079682
0.072220176 0.17611796 -0.61411792 3770006110
0.12668753 0.19636141 -0.63006288 3765730156
0.13090721 0.19489983 -0.62782878 3764610401
0.10295346 0.17732224 -0.62364441 3764476224
0.12591504 0.19696037 -0.63559055 3766585722
