# .PCD v0.7 - Point Cloud Data file format
VERSION 0.7
FIELDS x y z rgb merge_cnt segmentation_cnt reliability sequence view_pose_x view_pose_y view_pose_z
SIZE 4 4 4 4 4 4 4 4 8 8 8
TYPE F F F U U U F U F F F
COUNT 1 1 1 1 1 1 1 1 1 1 1
WIDTH 453
HEIGHT 1
VIEWPOINT 0 0 0 1 0 0 0
POINTS 453
DATA ascii
0.18574761 -0.097732052 0.03884504 2995947085 131 0 0 32764 6.9525508e-310 6.9525508e-310 6.9525508e-310
0.21515809 -0.028895931 0.10742765 2995027016 284 0 0 32764 6.9525508e-310 6.9525508e-310 6.9525508e-310
0.18512921 -0.09581165 0.048177052 2994959956 73 0 0 32764 6.9525508e-310 6.9525508e-310 6.9525508e-310
0.22825828 0.014186741 0.098584816 2991800378 268 0 0 32764 6.9525508e-310 6.9525508e-310 6.9525508e-310
0.18156295 -0.091697045 0.050461285 2994960983 73 0 0 32764 6.9525508e-310 6.9525508e-310 6.9525508e-310
0.22863401 0.013291188 0.099366955 2991997241 268 0 0 32764 6.9525508e-310 6.9525508e-310 6.9525508e-310
0.18945684 -0.10196827 0.040687978 2995355466 142 0 0 32764 6.9525508e-310 6.9525508e-310 6.9525508e-310
0.22029237 -0.030747656 0.10669003 2993644606 412 0 0 32764 6.9525508e-310 6.9525508e-310 6.9525508e-310
0.18075272 -0.090959109 0.053061761 2995488364 99 0 0 32764 6.9525508e-310 6.9525508e-310 6.9525508e-310
0.19435269 -0.10444248 0.043915775 2993972543 143 0 0 32764 6.9525508e-310 6.9525508e-310 6.9525508e-310
0.21672434 -0.029504038 0.10703474 2994171203 412 0 0 32764 6.9525508e-310 6.9525508e-310 6.9525508e-310
0.19341359 -0.1033176 0.043612204 2993709374 143 0 0 32764 6.9525508e-310 6.9525508e-310 6.9525508e-310
0.1832249 -0.092442341 0.054657903 2995620459 99 0 0 32764 6.9525508e-310 6.9525508e-310 6.9525508e-310
0.22929785 0.010858908 0.099971846 2992062777 268 0 0 32764 6.9525508e-310 6.9525508e-310 6.9525508e-310
0.18010037 -0.08958964 0.052317489 2995619949 99 0 0 32764 6.9525508e-310 6.9525508e-310 6.9525508e-310
0.1802575 -0.089591682 0.052856039 2995554156 99 0 0 32764 6.9525508e-310 6.9525508e-310 6.9525508e-310
0.21742353 -0.030181026 0.10820388 2994566475 415 0 0 32764 6.9525508e-310 6.9525508e-310 6.9525508e-310
0.21886399 -0.030510323 0.10729045 2994104644 412 0 0 32764 6.9525508e-310 6.9525508e-310 6.9525508e-310
0.18072619 -0.090248406 0.053195041 2995554157 99 0 0 32764 6.9525508e-310 6.9525508e-310 6.9525508e-310
0.18539675 -0.0947643 0.047885273 2995025748 73 0 0 32764 6.9525508e-310 6.9525508e-310 6.9525508e-310
0.19465685 -0.10499186 0.04427398 2993709885 133 0 0 32764 6.9525508e-310 6.9525508e-310 6.9525508e-310
0.22224614 -0.031011607 0.10661253 2993842244 407 0 0 32764 6.9525508e-310 6.9525508e-310 6.9525508e-310
0.21323149 -0.026031833 0.10625497 2995093065 284 0 0 32764 6.9525508e-310 6.9525508e-310 6.9525508e-310
0.21309133 -0.026839558 0.10717253 2994830149 284 0 0 32764 6.9525508e-310 6.9525508e-310 6.9525508e-310
0.21325538 -0.025782857 0.10725009 2993710399 284 0 0 32764 6.9525508e-310 6.9525508e-310 6.9525508e-310
0.22103493 -0.031450525 0.10788879 2994039362 252 0 0 32764 6.9525508e-310 6.9525508e-310 6.9525508e-310
0.18725149 -0.098823242 0.039798044 2995618895 132 0 0 32764 6.9525508e-310 6.9525508e-310 6.9525508e-310
0.21336199 -0.025723116 0.1062011 2994895176 284 0 0 32764 6.9525508e-310 6.9525508e-310 6.9525508e-310
0.18114281 -0.090860821 0.053537235 2995620207 99 0 0 32764 6.9525508e-310 6.9525508e-310 6.9525508e-310
0.19283621 -0.10456443 0.042434737 2994631751 143 0 0 32764 6.9525508e-310 6.9525508e-310 6.9525508e-310
0.17824715 -0.086946465 0.052344002 2576781166 104 0 0 32764 6.9525508e-310 6.9525508e-310 6.9525508e-310
0.17932712 -0.088116176 0.051549256 2576057439 100 0 0 32764 6.9525508e-310 6.9525508e-310 6.9525508e-310
0.1782091 -0.08684472 0.052606691 2576715630 104 0 0 32764 6.9525508e-310 6.9525508e-310 6.9525508e-310
0.18429147 -0.093493037 0.047896165 2575398228 74 0 0 32764 6.9525508e-310 6.9525508e-310 6.9525508e-310
0.21202923 -0.044374146 0.073895872 2576451413 263 0 0 32764 6.9525508e-310 6.9525508e-310 6.9525508e-310
0.18960969 -0.10033853 0.039774831 2575727946 138 0 0 32764 6.9525508e-310 6.9525508e-310 6.9525508e-310
0.19081642 -0.10007634 0.044970516 2574806086 138 0 0 32764 6.9525508e-310 6.9525508e-310 6.9525508e-310
0.22665854 0.011182015 0.098589316 2573357129 269 0 0 32764 6.9525508e-310 6.9525508e-310 6.9525508e-310
0.21716034 -0.046242435 0.099665068 2575727708 356 0 0 32764 6.9525508e-310 6.9525508e-310 6.9525508e-310
0.17670117 -0.084872894 0.053826809 2576452454 108 0 0 32764 6.9525508e-310 6.9525508e-310 6.9525508e-310
0.17677149 -0.085228339 0.053894524 2576320876 108 0 0 32764 6.9525508e-310 6.9525508e-310 6.9525508e-310
0.17935909 -0.087390624 0.054472923 2576387178 104 0 0 32764 6.9525508e-310 6.9525508e-310 6.9525508e-310
0.18835649 -0.094178811 0.059315674 2575926123 124 0 0 32764 6.9525508e-310 6.9525508e-310 6.9525508e-310
0.18166085 -0.093851559 0.037395723 2576253775 130 0 0 32764 6.9525508e-310 6.9525508e-310 6.9525508e-310
0.18350394 -0.090283051 0.057613786 2576058733 123 0 0 32764 6.9525508e-310 6.9525508e-310 6.9525508e-310
0.18125689 -0.091983132 0.038829166 2123467089 129 0 0 32764 6.9525508e-310 6.9525508e-310 6.9525508e-310
0.18031281 -0.087279506 0.054806404 2123270509 105 0 0 32764 6.9525508e-310 6.9525508e-310 6.9525508e-310
0.17897709 -0.09052971 0.037858043 2123796307 137 0 0 32764 6.9525508e-310 6.9525508e-310 6.9525508e-310
0.18262914 -0.093032151 0.039477132 2123006540 131 0 0 32764 6.9525508e-310 6.9525508e-310 6.9525508e-310
0.18080369 -0.088747077 0.049643956 2122808921 101 0 0 32764 6.9525508e-310 6.9525508e-310 6.9525508e-310
0.18543023 -0.090378784 0.059099525 2123073388 140 0 0 32764 6.9525508e-310 6.9525508e-310 6.9525508e-310
0.18687095 -0.096259251 0.041539326 2121953348 140 0 0 32764 6.9525508e-310 6.9525508e-310 6.9525508e-310
0.21456166 -0.02508733 0.10455804 2122085704 285 0 0 32764 6.9525508e-310 6.9525508e-310 6.9525508e-310
0.18441445 -0.092557311 0.047341354 2122281810 75 0 0 32764 6.9525508e-310 6.9525508e-310 6.9525508e-310
0.18102515 -0.08701732 0.055763938 2123204461 105 0 0 32764 6.9525508e-310 6.9525508e-310 6.9525508e-310
0.18099803 -0.087368503 0.055564329 2123270510 105 0 0 32764 6.9525508e-310 6.9525508e-310 6.9525508e-310
0.18099287 -0.091433443 0.038799163 2123467089 129 0 0 32764 6.9525508e-310 6.9525508e-310 6.9525508e-310
0.21484411 -0.026319431 0.10574874 2122612551 285 0 0 32764 6.9525508e-310 6.9525508e-310 6.9525508e-310
0.18653256 -0.094288662 0.046613839 2122281553 75 0 0 32764 6.9525508e-310 6.9525508e-310 6.9525508e-310
0.18316661 -0.089224257 0.057092238 2123073899 124 0 0 32764 6.9525508e-310 6.9525508e-310 6.9525508e-310
0.18168733 -0.089371569 0.04901487 2122348114 94 0 0 32764 6.9525508e-310 6.9525508e-310 6.9525508e-310
0.17686728 -0.084281422 0.053344142 2123402086 109 0 0 32764 6.9525508e-310 6.9525508e-310 6.9525508e-310
0.21450064 -0.025410337 0.10463939 2122415180 285 0 0 32764 6.9525508e-310 6.9525508e-310 6.9525508e-310
0.18069324 -0.087849334 0.055156585 2123204974 105 0 0 32764 6.9525508e-310 6.9525508e-310 6.9525508e-310
0.21510166 -0.023772733 0.10325489 2121163331 405 0 0 32764 6.9525508e-310 6.9525508e-310 6.9525508e-310
0.18208328 -0.088487081 0.056220401 2123008106 107 0 0 32764 6.9525508e-310 6.9525508e-310 6.9525508e-310
0.17774393 -0.085624918 0.052382398 2123467363 109 0 0 32764 6.9525508e-310 6.9525508e-310 6.9525508e-310
0.17892359 -0.089809842 0.038006313 2123599441 137 0 0 32764 6.9525508e-310 6.9525508e-310 6.9525508e-310
0.17954372 -0.085999429 0.054644909 2123007595 105 0 0 32764 6.9525508e-310 6.9525508e-310 6.9525508e-310
0.17941535 -0.086928211 0.050666224 2123138144 105 0 0 32764 6.9525508e-310 6.9525508e-310 6.9525508e-310
0.17948048 -0.086313404 0.054447036 2123138924 105 0 0 32764 6.9525508e-310 6.9525508e-310 6.9525508e-310
0.18885532 -0.096829399 0.044762287 2121294918 75 0 0 32764 6.9525508e-310 6.9525508e-310 6.9525508e-310
0.18091837 -0.088544652 0.049573582 2122808922 101 0 0 32764 6.9525508e-310 6.9525508e-310 6.9525508e-310
0.17618574 -0.088074647 0.037732292 2123862102 130 0 0 32764 6.9525508e-310 6.9525508e-310 6.9525508e-310
0.1833583 -0.089776605 0.056899257 2123074412 124 0 0 32764 6.9525508e-310 6.9525508e-310 6.9525508e-310
0.22664203 0.01281789 0.097352795 2119648821 272 0 0 32764 6.9525508e-310 6.9525508e-310 6.9525508e-310
0.18132295 -0.089588292 0.049431074 2122282320 101 0 0 32764 6.9525508e-310 6.9525508e-310 6.9525508e-310
0.19800065 -0.10186244 0.060760394 2122743911 66 0 0 32764 6.9525508e-310 6.9525508e-310 6.9525508e-310
0.17979668 -0.08793965 0.050531171 2122677335 101 0 0 32764 6.9525508e-310 6.9525508e-310 6.9525508e-310
0.18758354 -0.096433975 0.045916084 2122150478 75 0 0 32764 6.9525508e-310 6.9525508e-310 6.9525508e-310
0.17829159 -0.08595258 0.051794022 2123401570 109 0 0 32764 6.9525508e-310 6.9525508e-310 6.9525508e-310
0.21476212 -0.023957161 0.10355926 2120965952 405 0 0 32764 6.9525508e-310 6.9525508e-310 6.9525508e-310
0.17821485 -0.085519269 0.051988784 2123598949 109 0 0 32764 6.9525508e-310 6.9525508e-310 6.9525508e-310
0.18579055 -0.095494635 0.040795319 2122413637 140 0 0 32764 6.9525508e-310 6.9525508e-310 6.9525508e-310
0.22686861 0.011158319 0.097949304 2120108869 270 0 0 32764 6.9525508e-310 6.9525508e-310 6.9525508e-310
0.17774858 -0.088864274 0.037646312 2123796564 137 0 0 32764 6.9525508e-310 6.9525508e-310 6.9525508e-310
0.18427724 -0.092045918 0.047555782 2122084173 75 0 0 32764 6.9525508e-310 6.9525508e-310 6.9525508e-310
0.187737 -0.096347548 0.042823855 2120703293 89 0 0 32764 6.9525508e-310 6.9525508e-310 6.9525508e-310
0.18015656 -0.085572898 0.055901218 982222954 138 0 0 32764 6.9525508e-310 6.9525508e-310 6.9525508e-310
0.22297849 -0.031023506 0.10778052 980510529 409 0 0 32764 6.9525508e-310 6.9525508e-310 6.9525508e-310
0.18891458 -0.091679789 0.06087248 982156394 126 0 0 32764 6.9525508e-310 6.9525508e-310 6.9525508e-310
0.192772 -0.10017171 0.044308472 980575297 139 0 0 32764 6.9525508e-310 6.9525508e-310 6.9525508e-310
0.18644366 -0.090564966 0.059390482 982091626 126 0 0 32764 6.9525508e-310 6.9525508e-310 6.9525508e-310
0.18782727 -0.094593816 0.04617681 981102412 76 0 0 32764 6.9525508e-310 6.9525508e-310 6.9525508e-310
0.18161638 -0.09095826 0.039157238 982353743 130 0 0 32764 6.9525508e-310 6.9525508e-310 6.9525508e-310
0.18689975 -0.09408503 0.046288803 981299279 76 0 0 32764 6.9525508e-310 6.9525508e-310 6.9525508e-310
0.21440288 -0.025477564 0.10400254 981958982 286 0 0 32764 6.9525508e-310 6.9525508e-310 6.9525508e-310
0.1795371 -0.084803112 0.055536956 982288490 138 0 0 32764 6.9525508e-310 6.9525508e-310 6.9525508e-310
0.18847431 -0.097194456 0.041099615 981036610 141 0 0 32764 6.9525508e-310 6.9525508e-310 6.9525508e-310
0.1781116 -0.084110618 0.053387552 982485349 110 0 0 32764 6.9525508e-310 6.9525508e-310 6.9525508e-310
0.21574299 -0.027537717 0.10472625 981432137 417 0 0 32764 6.9525508e-310 6.9525508e-310 6.9525508e-310
0.20384216 -0.042224329 0.070043139 982748505 219 0 0 32764 6.9525508e-310 6.9525508e-310 6.9525508e-310
0.17913915 -0.084892347 0.05506165 982090600 106 0 0 32764 6.9525508e-310 6.9525508e-310 6.9525508e-310
0.22044437 -0.029818837 0.10473686 980247357 412 0 0 32764 6.9525508e-310 6.9525508e-310 6.9525508e-310
0.18224351 -0.087416284 0.057160914 981959783 120 0 0 32764 6.9525508e-310 6.9525508e-310 6.9525508e-310
0.17933659 -0.089823551 0.038223743 982551119 138 0 0 32764 6.9525508e-310 6.9525508e-310 6.9525508e-310
0.19110774 -0.098875865 0.042266514 981036611 138 0 0 32764 6.9525508e-310 6.9525508e-310 6.9525508e-310
0.21441174 -0.025059393 0.10422842 981563982 286 0 0 32764 6.9525508e-310 6.9525508e-310 6.9525508e-310
0.18369405 -0.090385988 0.048288874 981497429 95 0 0 32764 6.9525508e-310 6.9525508e-310 6.9525508e-310
0.18021394 -0.085923553 0.055974424 982288747 138 0 0 32764 6.9525508e-310 6.9525508e-310 6.9525508e-310
0.17837489 -0.084567681 0.053723451 982353763 110 0 0 32764 6.9525508e-310 6.9525508e-310 6.9525508e-310
0.18592349 -0.089404918 0.059479576 982288749 141 0 0 32764 6.9525508e-310 6.9525508e-310 6.9525508e-310
0.18219514 -0.089072324 0.049482912 981300047 95 0 0 32764 6.9525508e-310 6.9525508e-310 6.9525508e-310
0.22216453 -0.030656716 0.10665355 980576068 408 0 0 32764 6.9525508e-310 6.9525508e-310 6.9525508e-310
0.18835877 -0.09676224 0.04104038 980839488 141 0 0 32764 6.9525508e-310 6.9525508e-310 6.9525508e-310
0.22248878 -0.030823153 0.10643159 980378946 408 0 0 32764 6.9525508e-310 6.9525508e-310 6.9525508e-310
0.19283091 -0.10014595 0.044604924 980641091 139 0 0 32764 6.9525508e-310 6.9525508e-310 6.9525508e-310
0.19063298 -0.098002911 0.045316733 981036360 138 0 0 32764 6.9525508e-310 6.9525508e-310 6.9525508e-310
0.1880758 -0.095617823 0.045734394 981168205 76 0 0 32764 6.9525508e-310 6.9525508e-310 6.9525508e-310
0.18270276 -0.089359686 0.048860349 981431122 95 0 0 32764 6.9525508e-310 6.9525508e-310 6.9525508e-310
0.18015292 -0.086993337 0.051711421 982748008 106 0 0 32764 6.9525508e-310 6.9525508e-310 6.9525508e-310
0.21559641 -0.027258081 0.10280406 980575553 418 0 0 32764 6.9525508e-310 6.9525508e-310 6.9525508e-310
0.18021165 -0.086814642 0.051376838 982287967 106 0 0 32764 6.9525508e-310 6.9525508e-310 6.9525508e-310
0.18159209 -0.0887696 0.049830616 981760855 102 0 0 32764 6.9525508e-310 6.9525508e-310 6.9525508e-310
0.18405794 -0.090782799 0.048002977 981497428 95 0 0 32764 6.9525508e-310 6.9525508e-310 6.9525508e-310
0.1922102 -0.099223778 0.043300163 980641346 139 0 0 32764 6.9525508e-310 6.9525508e-310 6.9525508e-310
0.21737157 -0.028498981 0.1059166 980905797 414 0 0 32764 6.9525508e-310 6.9525508e-310 6.9525508e-310
0.19282034 -0.099875912 0.044231582 980509505 139 0 0 32764 6.9525508e-310 6.9525508e-310 6.9525508e-310
0.18475968 -0.091869563 0.047496192 981101642 76 0 0 32764 6.9525508e-310 6.9525508e-310 6.9525508e-310
0.17841989 -0.084971704 0.053531293 982419041 110 0 0 32764 6.9525508e-310 6.9525508e-310 6.9525508e-310
0.1886854 -0.095040254 0.04441905 762472262 77 0 0 32764 6.9525508e-310 6.9525508e-310 6.9525508e-310
0.21701713 -0.04661731 0.075723074 764249422 258 0 0 32764 6.9525508e-310 6.9525508e-310 6.9525508e-310
0.18276085 -0.088590413 0.049131442 763328082 96 0 0 32764 6.9525508e-310 6.9525508e-310 6.9525508e-310
0.17689383 -0.086184189 0.03974257 764447312 141 0 0 32764 6.9525508e-310 6.9525508e-310 6.9525508e-310
0.18410294 -0.090306856 0.048349388 763591000 96 0 0 32764 6.9525508e-310 6.9525508e-310 6.9525508e-310
0.18942201 -0.091472149 0.061879002 763920743 127 0 0 32764 6.9525508e-310 6.9525508e-310 6.9525508e-310
0.18740299 -0.093443759 0.0462058 762866251 77 0 0 32764 6.9525508e-310 6.9525508e-310 6.9525508e-310
0.18060423 -0.086634114 0.050568942 763854938 107 0 0 32764 6.9525508e-310 6.9525508e-310 6.9525508e-310
0.18669356 -0.089428224 0.060471788 763856233 142 0 0 32764 6.9525508e-310 6.9525508e-310 6.9525508e-310
0.18273889 -0.088878825 0.049199868 763393875 96 0 0 32764 6.9525508e-310 6.9525508e-310 6.9525508e-310
0.18726219 -0.093243703 0.046496741 763524176 77 0 0 32764 6.9525508e-310 6.9525508e-310 6.9525508e-310
0.17898595 -0.083621688 0.056621354 763987049 139 0 0 32764 6.9525508e-310 6.9525508e-310 6.9525508e-310
0.17865536 -0.084203929 0.052079253 763854939 111 0 0 32764 6.9525508e-310 6.9525508e-310 6.9525508e-310
0.18685941 -0.094096601 0.043172166 761617473 91 0 0 32764 6.9525508e-310 6.9525508e-310 6.9525508e-310
0.18676974 -0.093695037 0.043110166 761748802 91 0 0 32764 6.9525508e-310 6.9525508e-310 6.9525508e-310
0.18983464 -0.09020789 0.06326703 2340847719 128 0 0 32764 6.9525508e-310 6.9525508e-310 6.9525508e-310
0.18516228 -0.090997308 0.046974279 2339925069 78 0 0 32764 6.9525508e-310 6.9525508e-310 6.9525508e-310
0.18517509 -0.090570092 0.044815663 2338740540 92 0 0 32764 6.9525508e-310 6.9525508e-310 6.9525508e-310
0.17861338 -0.082530603 0.05630742 2340848227 140 0 0 32764 6.9525508e-310 6.9525508e-310 6.9525508e-310
0.18584599 -0.091649808 0.045476004 2339267397 78 0 0 32764 6.9525508e-310 6.9525508e-310 6.9525508e-310
0.16744836 -0.076383092 0.041190233 2341571409 82 0 0 32764 6.9525508e-310 6.9525508e-310 6.9525508e-310
0.18284997 -0.087672845 0.048221357 2340255060 97 0 0 32764 6.9525508e-310 6.9525508e-310 6.9525508e-310
0.1795025 -0.08352375 0.056689724 2340979560 140 0 0 32764 6.9525508e-310 6.9525508e-310 6.9525508e-310
0.17881715 -0.084126271 0.050808355 2340650071 112 0 0 32764 6.9525508e-310 6.9525508e-310 6.9525508e-310
0.18000704 -0.083226822 0.057113808 2341177450 140 0 0 32764 6.9525508e-310 6.9525508e-310 6.9525508e-310
0.18177837 -0.087507747 0.048986133 2340452439 104 0 0 32764 6.9525508e-310 6.9525508e-310 6.9525508e-310
0.18629341 -0.088436462 0.060760695 2340848744 143 0 0 32764 6.9525508e-310 6.9525508e-310 6.9525508e-310
0.16533116 -0.074969932 0.040559359 2341636945 140 0 0 32764 6.9525508e-310 6.9525508e-310 6.9525508e-310
0.18022734 -0.084967405 0.049879946 2340780117 100 0 0 32764 6.9525508e-310 6.9525508e-310 6.9525508e-310
0.17700876 -0.082435764 0.052417111 2340978782 104 0 0 32764 6.9525508e-310 6.9525508e-310 6.9525508e-310
0.17839952 -0.085919201 0.042434938 2340518472 97 0 0 32764 6.9525508e-310 6.9525508e-310 6.9525508e-310
0.18178283 -0.086903743 0.048853301 2340386902 104 0 0 32764 6.9525508e-310 6.9525508e-310 6.9525508e-310
0.1703068 -0.079371907 0.04147692 2341307983 141 0 0 32764 6.9525508e-310 6.9525508e-310 6.9525508e-310
0.18888097 -0.090024695 0.062081803 2340979563 128 0 0 32764 6.9525508e-310 6.9525508e-310 6.9525508e-310
0.1830626 -0.085417725 0.058947835 2341046637 122 0 0 32764 6.9525508e-310 6.9525508e-310 6.9525508e-310
0.18554384 -0.091092534 0.04661252 2339991377 78 0 0 32764 6.9525508e-310 6.9525508e-310 6.9525508e-310
0.17698073 -0.081036374 0.055376925 2341177193 114 0 0 32764 6.9525508e-310 6.9525508e-310 6.9525508e-310
0.18292098 -0.085979536 0.058805846 2340914795 122 0 0 32764 6.9525508e-310 6.9525508e-310 6.9525508e-310
0.18260723 -0.085780583 0.058509082 2340980587 122 0 0 32764 6.9525508e-310 6.9525508e-310 6.9525508e-310
0.17876099 -0.083488069 0.050678056 2340517973 112 0 0 32764 6.9525508e-310 6.9525508e-310 6.9525508e-310
0.1719414 -0.079832807 0.041875985 2341505618 141 0 0 32764 6.9525508e-310 6.9525508e-310 6.9525508e-310
0.17562018 -0.079974949 0.0537243 2341242981 114 0 0 32764 6.9525508e-310 6.9525508e-310 6.9525508e-310
0.21555519 -0.025940694 0.1037078 2340979791 408 0 0 32764 6.9525508e-310 6.9525508e-310 6.9525508e-310
0.1810472 -0.08397834 0.057716005 2341242988 140 0 0 32764 6.9525508e-310 6.9525508e-310 6.9525508e-310
0.18245319 -0.085343525 0.058426797 2341112173 122 0 0 32764 6.9525508e-310 6.9525508e-310 6.9525508e-310
0.21584269 -0.024986234 0.10351299 2340913487 408 0 0 32764 6.9525508e-310 6.9525508e-310 6.9525508e-310
0.18623616 -0.09175133 0.04510697 2338346302 92 0 0 32764 6.9525508e-310 6.9525508e-310 6.9525508e-310
0.1669149 -0.076544985 0.040890981 2341439823 82 0 0 32764 6.9525508e-310 6.9525508e-310 6.9525508e-310
0.18397629 -0.089420944 0.047777344 2340780631 97 0 0 32764 6.9525508e-310 6.9525508e-310 6.9525508e-310
0.1803443 -0.085437119 0.049678333 2340583511 104 0 0 32764 6.9525508e-310 6.9525508e-310 6.9525508e-310
0.18742974 -0.088010035 0.06234964 2340914535 143 0 0 32764 6.9525508e-310 6.9525508e-310 6.9525508e-310
0.17780934 -0.081972748 0.055742707 2341111399 140 0 0 32764 6.9525508e-310 6.9525508e-310 6.9525508e-310
0.18089157 -0.085683741 0.049339071 2340583510 104 0 0 32764 6.9525508e-310 6.9525508e-310 6.9525508e-310
0.18501133 -0.090811059 0.044612508 2338674748 92 0 0 32764 6.9525508e-310 6.9525508e-310 6.9525508e-310
0.18445875 -0.091017663 0.044499174 2338675005 92 0 0 32764 6.9525508e-310 6.9525508e-310 6.9525508e-310
0.18319789 -0.088940009 0.041386358 2692312900 148 0 0 32764 6.9525508e-310 6.9525508e-310 6.9525508e-310
0.18342346 -0.089380659 0.041705776 2691983936 148 0 0 32764 6.9525508e-310 6.9525508e-310 6.9525508e-310
0.18500222 -0.085161485 0.061495084 2693235818 144 0 0 32764 6.9525508e-310 6.9525508e-310 6.9525508e-310
0.18414009 -0.088502534 0.042500958 2691918662 148 0 0 32764 6.9525508e-310 6.9525508e-310 6.9525508e-310
0.21157087 -0.023898793 0.10084708 2692971335 409 0 0 32764 6.9525508e-310 6.9525508e-310 6.9525508e-310
0.18296665 -0.084404647 0.06004864 2693301351 145 0 0 32764 6.9525508e-310 6.9525508e-310 6.9525508e-310
0.17750084 -0.08061453 0.051241342 2692905047 115 0 0 32764 6.9525508e-310 6.9525508e-310 6.9525508e-310
0.17787309 -0.079960182 0.0576015 2693105005 145 0 0 32764 6.9525508e-310 6.9525508e-310 6.9525508e-310
0.18683717 -0.091432974 0.04541089 2689746740 100 0 0 32764 6.9525508e-310 6.9525508e-310 6.9525508e-310
0.18035451 -0.084019355 0.04868507 2692904275 101 0 0 32764 6.9525508e-310 6.9525508e-310 6.9525508e-310
0.18130508 -0.084976278 0.0481367 2692576082 101 0 0 32764 6.9525508e-310 6.9525508e-310 6.9525508e-310
0.1828033 -0.083521448 0.060437389 2693367143 145 0 0 32764 6.9525508e-310 6.9525508e-310 6.9525508e-310
0.17782617 -0.081603318 0.050853353 2692839254 105 0 0 32764 6.9525508e-310 6.9525508e-310 6.9525508e-310
0.17476873 -0.078429401 0.054154113 2693367402 115 0 0 32764 6.9525508e-310 6.9525508e-310 6.9525508e-310
0.18542486 -0.090605982 0.043789573 2690930750 93 0 0 32764 6.9525508e-310 6.9525508e-310 6.9525508e-310
0.18252538 -0.086237766 0.047300454 2692706642 98 0 0 32764 6.9525508e-310 6.9525508e-310 6.9525508e-310
0.18519795 -0.084565178 0.061929196 2693433196 144 0 0 32764 6.9525508e-310 6.9525508e-310 6.9525508e-310
0.17626564 -0.079524182 0.052562814 2693168731 115 0 0 32764 6.9525508e-310 6.9525508e-310 6.9525508e-310
0.18209924 -0.08610341 0.047646303 2692641876 105 0 0 32764 6.9525508e-310 6.9525508e-310 6.9525508e-310
0.18344356 -0.08474049 0.060369454 2693367403 144 0 0 32764 6.9525508e-310 6.9525508e-310 6.9525508e-310
0.1860891 -0.091124386 0.044033386 2690799680 93 0 0 32764 6.9525508e-310 6.9525508e-310 6.9525508e-310
0.18153319 -0.082588159 0.05977032 2693433195 145 0 0 32764 6.9525508e-310 6.9525508e-310 6.9525508e-310
0.18606019 -0.086362287 0.061683647 2693236073 144 0 0 32764 6.9525508e-310 6.9525508e-310 6.9525508e-310
0.1784901 -0.081787176 0.049949769 2692576083 105 0 0 32764 6.9525508e-310 6.9525508e-310 6.9525508e-310
0.1842135 -0.088221319 0.046495043 2691984206 98 0 0 32764 6.9525508e-310 6.9525508e-310 6.9525508e-310
0.18536799 -0.089927666 0.043662608 2691062075 93 0 0 32764 6.9525508e-310 6.9525508e-310 6.9525508e-310
0.18098103 -0.085295856 0.0482703 2692773461 105 0 0 32764 6.9525508e-310 6.9525508e-310 6.9525508e-310
0.18090627 -0.082127117 0.059442524 2693432940 145 0 0 32764 6.9525508e-310 6.9525508e-310 6.9525508e-310
0.18194589 -0.083606847 0.059678521 2693302123 123 0 0 32764 6.9525508e-310 6.9525508e-310 6.9525508e-310
0.19199976 -0.089959331 0.065146863 2693169515 169 0 0 32764 6.9525508e-310 6.9525508e-310 6.9525508e-310
0.18552642 -0.089369506 0.043802962 2691062846 98 0 0 32764 6.9525508e-310 6.9525508e-310 6.9525508e-310
0.18339229 -0.089044362 0.041645154 2692444229 148 0 0 32764 6.9525508e-310 6.9525508e-310 6.9525508e-310
0.17474204 -0.078625269 0.054466922 2693433192 115 0 0 32764 6.9525508e-310 6.9525508e-310 6.9525508e-310
0.18674341 -0.090150625 0.044865567 2689680432 100 0 0 32764 6.9525508e-310 6.9525508e-310 6.9525508e-310
0.18635771 -0.089884922 0.04460153 2690930748 93 0 0 32764 6.9525508e-310 6.9525508e-310 6.9525508e-310
0.17522116 -0.078095928 0.05348146 2693300833 115 0 0 32764 6.9525508e-310 6.9525508e-310 6.9525508e-310
0.19058433 -0.088931769 0.064370848 2693169770 169 0 0 32764 6.9525508e-310 6.9525508e-310 6.9525508e-310
0.21057601 -0.024669921 0.10075238 2692971850 409 0 0 32764 6.9525508e-310 6.9525508e-310 6.9525508e-310
0.18774092 -0.086466081 0.063072465 2693367917 144 0 0 32764 6.9525508e-310 6.9525508e-310 6.9525508e-310
0.17944066 -0.083457984 0.049022835 2692576084 105 0 0 32764 6.9525508e-310 6.9525508e-310 6.9525508e-310
0.18144853 -0.084799387 0.048069995 2692510289 101 0 0 32764 6.9525508e-310 6.9525508e-310 6.9525508e-310
0.18788473 -0.087364793 0.062667571 2693104488 144 0 0 32764 6.9525508e-310 6.9525508e-310 6.9525508e-310
0.20997189 -0.025112089 0.10102769 2693301087 409 0 0 32764 6.9525508e-310 6.9525508e-310 6.9525508e-310
0.1844286 -0.083994485 0.061565645 2693367403 145 0 0 32764 6.9525508e-310 6.9525508e-310 6.9525508e-310
0.18532273 -0.085049421 0.061736874 2693301611 144 0 0 32764 6.9525508e-310 6.9525508e-310 6.9525508e-310
0.18174098 -0.085119359 0.047795169 2692510546 101 0 0 32764 6.9525508e-310 6.9525508e-310 6.9525508e-310
0.17441466 -0.078093529 0.055453699 2693235560 115 0 0 32764 6.9525508e-310 6.9525508e-310 6.9525508e-310
0.17455241 -0.077775352 0.054834519 2693762156 123 0 0 32764 6.9525508e-310 6.9525508e-310 6.9525508e-310
0.20280495 -0.042674571 0.070399381 3817834838 220 0 0 32764 6.9525508e-310 6.9525508e-310 6.9525508e-310
0.17532702 -0.076778598 0.056158278 3817506411 116 0 0 32764 6.9525508e-310 6.9525508e-310 6.9525508e-310
0.18197334 -0.084632598 0.048922457 3816517969 102 0 0 32764 6.9525508e-310 6.9525508e-310 6.9525508e-310
0.18583591 -0.084198184 0.062813565 3817440876 145 0 0 32764 6.9525508e-310 6.9525508e-310 6.9525508e-310
0.22194467 -0.049234919 0.079909943 3817307725 277 0 0 32764 6.9525508e-310 6.9525508e-310 6.9525508e-310
0.21326903 -0.024035919 0.10099369 3817308236 410 0 0 32764 6.9525508e-310 6.9525508e-310 6.9525508e-310
0.17666993 -0.078768432 0.054027278 3817702752 116 0 0 32764 6.9525508e-310 6.9525508e-310 6.9525508e-310
0.17686924 -0.078780107 0.053462639 3817176153 116 0 0 32764 6.9525508e-310 6.9525508e-310 6.9525508e-310
0.1809621 -0.083259642 0.049657363 3816846417 102 0 0 32764 6.9525508e-310 6.9525508e-310 6.9525508e-310
0.18523246 -0.083765671 0.062457372 3817506668 145 0 0 32764 6.9525508e-310 6.9525508e-310 6.9525508e-310
0.17911437 -0.079554044 0.059388578 3817638256 142 0 0 32764 6.9525508e-310 6.9525508e-310 6.9525508e-310
0.17527954 -0.076676011 0.056406152 3817637996 116 0 0 32764 6.9525508e-310 6.9525508e-310 6.9525508e-310
0.17985713 -0.08011274 0.059730187 3817572205 142 0 0 32764 6.9525508e-310 6.9525508e-310 6.9525508e-310
0.18276273 -0.085282877 0.04777202 3816386895 102 0 0 32764 6.9525508e-310 6.9525508e-310 6.9525508e-310
0.18146697 -0.083827749 0.049125452 3816715088 102 0 0 32764 6.9525508e-310 6.9525508e-310 6.9525508e-310
0.17789094 -0.080131643 0.052799314 3816847189 116 0 0 32764 6.9525508e-310 6.9525508e-310 6.9525508e-310
0.17704208 -0.078990988 0.053214576 3817110873 116 0 0 32764 6.9525508e-310 6.9525508e-310 6.9525508e-310
0.17509568 -0.076738492 0.056706365 3817440874 116 0 0 32764 6.9525508e-310 6.9525508e-310 6.9525508e-310
0.18116426 -0.081077687 0.060404871 3817440619 146 0 0 32764 6.9525508e-310 6.9525508e-310 6.9525508e-310
0.1752829 -0.077021956 0.056218509 3817506667 116 0 0 32764 6.9525508e-310 6.9525508e-310 6.9525508e-310
0.17959087 -0.08198002 0.051288914 3816649810 106 0 0 32764 6.9525508e-310 6.9525508e-310 6.9525508e-310
0.20905937 -0.071062595 0.092881888 3816716131 236 0 0 32764 6.9525508e-310 6.9525508e-310 6.9525508e-310
0.21403898 -0.04475005 0.081333533 3818031954 276 0 0 32764 6.9525508e-310 6.9525508e-310 6.9525508e-310
0.18194465 -0.084440582 0.048319098 3816583762 102 0 0 32764 6.9525508e-310 6.9525508e-310 6.9525508e-310
0.21649651 -0.050126728 0.10859303 3817636448 241 0 0 32764 6.9525508e-310 6.9525508e-310 6.9525508e-310
0.1839817 -0.086543269 0.046935413 3816057163 99 0 0 32764 6.9525508e-310 6.9525508e-310 6.9525508e-310
0.1803004 -0.082492143 0.050446741 3816517969 106 0 0 32764 6.9525508e-310 6.9525508e-310 6.9525508e-310
0.1795174 -0.08155793 0.051485535 3816978775 106 0 0 32764 6.9525508e-310 6.9525508e-310 6.9525508e-310
0.21683982 -0.048994742 0.10763986 3816582992 243 0 0 32764 6.9525508e-310 6.9525508e-310 6.9525508e-310
0.17647827 -0.077655233 0.057837997 3817638253 126 0 0 32764 6.9525508e-310 6.9525508e-310 6.9525508e-310
0.1801215 -0.081333257 0.047901981 3295963724 108 0 0 32764 6.9525508e-310 6.9525508e-310 6.9525508e-310
0.1764064 -0.077566795 0.052628979 3296752979 115 0 0 32764 6.9525508e-310 6.9525508e-310 6.9525508e-310
0.2180282 -0.023506667 0.10149905 3296950347 405 0 0 32764 6.9525508e-310 6.9525508e-310 6.9525508e-310
0.18016326 -0.081074178 0.047838036 3295832398 108 0 0 32764 6.9525508e-310 6.9525508e-310 6.9525508e-310
0.17946915 -0.081918217 0.047045831 3295963723 108 0 0 32764 6.9525508e-310 6.9525508e-310 6.9525508e-310
0.2173503 -0.025335815 0.10217581 3297411917 409 0 0 32764 6.9525508e-310 6.9525508e-310 6.9525508e-310
0.18190579 -0.080019817 0.061716333 3297347695 147 0 0 32764 6.9525508e-310 6.9525508e-310 6.9525508e-310
0.17826347 -0.077101186 0.059631065 3297412459 117 0 0 32764 6.9525508e-310 6.9525508e-310 6.9525508e-310
0.17725767 -0.078771248 0.051958255 3296620883 112 0 0 32764 6.9525508e-310 6.9525508e-310 6.9525508e-310
0.18246731 -0.079179011 0.063192904 3297347691 183 0 0 32764 6.9525508e-310 6.9525508e-310 6.9525508e-310
0.20025413 -0.092243709 0.07004308 3296359778 171 0 0 32764 6.9525508e-310 6.9525508e-310 6.9525508e-310
0.18162495 -0.079056993 0.062075194 3297216363 162 0 0 32764 6.9525508e-310 6.9525508e-310 6.9525508e-310
0.22186364 -0.049792215 0.077675246 3297147982 278 0 0 32764 6.9525508e-310 6.9525508e-310 6.9525508e-310
0.18788882 -0.083738543 0.066094853 3297018474 171 0 0 32764 6.9525508e-310 6.9525508e-310 6.9525508e-310
0.18104306 -0.0801652 0.060680401 3297215338 147 0 0 32764 6.9525508e-310 6.9525508e-310 6.9525508e-310
0.18025801 -0.082699716 0.047891628 3296358735 103 0 0 32764 6.9525508e-310 6.9525508e-310 6.9525508e-310
0.18139139 -0.079363056 0.061314002 3297215594 147 0 0 32764 6.9525508e-310 6.9525508e-310 6.9525508e-310
0.18326537 -0.080874071 0.062977217 3297413228 147 0 0 32764 6.9525508e-310 6.9525508e-310 6.9525508e-310
0.18021873 -0.082732119 0.047627196 3296358992 103 0 0 32764 6.9525508e-310 6.9525508e-310 6.9525508e-310
0.18214367 -0.078982174 0.062878646 3297347179 183 0 0 32764 6.9525508e-310 6.9525508e-310 6.9525508e-310
0.21780625 -0.024406344 0.10205045 3296950348 405 0 0 32764 6.9525508e-310 6.9525508e-310 6.9525508e-310
0.17877035 -0.079782575 0.049473912 3296358738 107 0 0 32764 6.9525508e-310 6.9525508e-310 6.9525508e-310
0.18453197 -0.080589019 0.064583696 3297281644 183 0 0 32764 6.9525508e-310 6.9525508e-310 6.9525508e-310
0.17742331 -0.078468286 0.051323116 3296687703 113 0 0 32764 6.9525508e-310 6.9525508e-310 6.9525508e-310
0.17594925 -0.077269457 0.053432334 3296885081 115 0 0 32764 6.9525508e-310 6.9525508e-310 6.9525508e-310
0.17964049 -0.08049567 0.04836724 3296358483 107 0 0 32764 6.9525508e-310 6.9525508e-310 6.9525508e-310
0.1796446 -0.080792472 0.048430767 3296029773 108 0 0 32764 6.9525508e-310 6.9525508e-310 6.9525508e-310
0.17680751 -0.078257501 0.052453674 3296687188 117 0 0 32764 6.9525508e-310 6.9525508e-310 6.9525508e-310
0.18327524 -0.081321724 0.062506348 3297281898 147 0 0 32764 6.9525508e-310 6.9525508e-310 6.9525508e-310
0.21575579 -0.023374662 0.10000929 3549267276 412 0 0 32764 6.9525508e-310 6.9525508e-310 6.9525508e-310
0.21135361 -0.026028905 0.099369399 3548280648 410 0 0 32764 6.9525508e-310 6.9525508e-310 6.9525508e-310
0.22096005 -0.054481518 0.11039557 3548938078 243 0 0 32764 6.9525508e-310 6.9525508e-310 6.9525508e-310
0.21627812 -0.023148799 0.10011125 3549464911 412 0 0 32764 6.9525508e-310 6.9525508e-310 6.9525508e-310
0.1910314 -0.084706396 0.068072543 3548610408 179 0 0 32764 6.9525508e-310 6.9525508e-310 6.9525508e-310
0.22112039 -0.053436421 0.11014173 3549003870 243 0 0 32764 6.9525508e-310 6.9525508e-310 6.9525508e-310
0.18628764 -0.080894493 0.065740511 3549071725 148 0 0 32764 6.9525508e-310 6.9525508e-310 6.9525508e-310
0.1844116 -0.079948492 0.064403623 3548874090 184 0 0 32764 6.9525508e-310 6.9525508e-310 6.9525508e-310
0.21496031 -0.023954745 0.099572569 3548938058 412 0 0 32764 6.9525508e-310 6.9525508e-310 6.9525508e-310
0.18912892 -0.08369372 0.066945128 3548676458 172 0 0 32764 6.9525508e-310 6.9525508e-310 6.9525508e-310
0.18608913 -0.081489511 0.065300323 3549005419 148 0 0 32764 6.9525508e-310 6.9525508e-310 6.9525508e-310
0.17895298 -0.079637304 0.048295371 3547819601 108 0 0 32764 6.9525508e-310 6.9525508e-310 6.9525508e-310
0.21321361 -0.024896119 0.099290036 3548279876 412 0 0 32764 6.9525508e-310 6.9525508e-310 6.9525508e-310
0.18548894 -0.080314867 0.065329529 3549071725 148 0 0 32764 6.9525508e-310 6.9525508e-310 6.9525508e-310
0.22012338 -0.049330719 0.10713488 3547884366 245 0 0 32764 6.9525508e-310 6.9525508e-310 6.9525508e-310
0.18928517 -0.083431885 0.067181595 3548676714 172 0 0 32764 6.9525508e-310 6.9525508e-310 6.9525508e-310
0.22126657 -0.053039093 0.1104494 3549003871 243 0 0 32764 6.9525508e-310 6.9525508e-310 6.9525508e-310
0.18208151 -0.077947266 0.063159853 3548676968 184 0 0 32764 6.9525508e-310 6.9525508e-310 6.9525508e-310
0.17944312 -0.079345234 0.048693333 3547621960 113 0 0 32764 6.9525508e-310 6.9525508e-310 6.9525508e-310
0.22060271 -0.052179668 0.080865294 3547819330 285 0 0 32764 6.9525508e-310 6.9525508e-310 6.9525508e-310
0.18504228 -0.078969032 0.066399835 3733291885 185 0 0 32764 6.9525508e-310 6.9525508e-310 6.9525508e-310
0.21209224 -0.046574425 0.075723246 3733552979 265 0 0 32764 6.9525508e-310 6.9525508e-310 6.9525508e-310
0.21395525 -0.023462502 0.098513946 3733289800 413 0 0 32764 6.9525508e-310 6.9525508e-310 6.9525508e-310
0.17811966 -0.074144669 0.062039036 3733489516 129 0 0 32764 6.9525508e-310 6.9525508e-310 6.9525508e-310
0.21785063 -0.049055196 0.1066025 3732565583 244 0 0 32764 6.9525508e-310 6.9525508e-310 6.9525508e-310
0.20183702 -0.043145988 0.070771277 3733619539 221 0 0 32764 6.9525508e-310 6.9525508e-310 6.9525508e-310
0.21920094 -0.053433485 0.10906344 3733487455 244 0 0 32764 6.9525508e-310 6.9525508e-310 6.9525508e-310
0.21676956 -0.050593194 0.1074466 3733619041 245 0 0 32764 6.9525508e-310 6.9525508e-310 6.9525508e-310
0.21215041 -0.045605283 0.079652563 3733619279 277 0 0 32764 6.9525508e-310 6.9525508e-310 6.9525508e-310
0.18616241 -0.079506993 0.066951931 2424537448 186 0 0 32764 6.9525508e-310 6.9525508e-310 6.9525508e-310
0.18258636 -0.076880582 0.065186121 2424669289 185 0 0 32764 6.9525508e-310 6.9525508e-310 6.9525508e-310
0.19591549 -0.086209059 0.070796713 2424405356 215 0 0 32764 6.9525508e-310 6.9525508e-310 6.9525508e-310
0.1857809 -0.078891367 0.066801548 2424603242 186 0 0 32764 6.9525508e-310 6.9525508e-310 6.9525508e-310
0.19116181 -0.082623914 0.068923324 2424405608 180 0 0 32764 6.9525508e-310 6.9525508e-310 6.9525508e-310
0.17736326 -0.073152043 0.062192421 2424734568 165 0 0 32764 6.9525508e-310 6.9525508e-310 6.9525508e-310
0.20019858 -0.089988843 0.071790136 2423615326 172 0 0 32764 6.9525508e-310 6.9525508e-310 6.9525508e-310
0.21186036 -0.022989172 0.096878842 2424535123 414 0 0 32764 6.9525508e-310 6.9525508e-310 6.9525508e-310
0.17781204 -0.073453933 0.062520877 2424866154 165 0 0 32764 6.9525508e-310 6.9525508e-310 6.9525508e-310
0.21286806 -0.021900332 0.096875384 2425193292 389 0 0 32764 6.9525508e-310 6.9525508e-310 6.9525508e-310
0.18203044 -0.076496646 0.064817719 2424997999 186 0 0 32764 6.9525508e-310 6.9525508e-310 6.9525508e-310
0.21794432 -0.049285226 0.10659165 2424337753 245 0 0 32764 6.9525508e-310 6.9525508e-310 6.9525508e-310
0.19662943 -0.086702637 0.071251102 2424339564 215 0 0 32764 6.9525508e-310 6.9525508e-310 6.9525508e-310
0.17777695 -0.073142029 0.062445771 2424734568 165 0 0 32764 6.9525508e-310 6.9525508e-310 6.9525508e-310
0.20786376 -0.047945827 0.10266294 2424798816 361 0 0 32764 6.9525508e-310 6.9525508e-310 6.9525508e-310
0.18452469 -0.076550066 0.06821271 914719852 186 0 0 32764 6.9525508e-310 6.9525508e-310 6.9525508e-310
0.19193234 -0.081021823 0.071622409 914258537 216 0 0 32764 6.9525508e-310 6.9525508e-310 6.9525508e-310
0.18234682 -0.073910184 0.067511916 914456422 186 0 0 32764 6.9525508e-310 6.9525508e-310 6.9525508e-310
0.18416548 -0.075218908 0.068446614 914456936 186 0 0 32764 6.9525508e-310 6.9525508e-310 6.9525508e-310
0.21935485 -0.048617315 0.10577695 914190932 248 0 0 32764 6.9525508e-310 6.9525508e-310 6.9525508e-310
0.2195619 -0.048975963 0.10631862 913993294 246 0 0 32764 6.9525508e-310 6.9525508e-310 6.9525508e-310
0.18568522 -0.075606138 0.069451444 914785902 216 0 0 32764 6.9525508e-310 6.9525508e-310 6.9525508e-310
0.207552 -0.048770275 0.10245746 915112293 362 0 0 32764 6.9525508e-310 6.9525508e-310 6.9525508e-310
0.21198386 -0.021133939 0.095647611 915111496 390 0 0 32764 6.9525508e-310 6.9525508e-310 6.9525508e-310
0.18247269 -0.07474003 0.067156516 914522215 186 0 0 32764 6.9525508e-310 6.9525508e-310 6.9525508e-310
0.18922886 -0.07941556 0.070217468 914851437 216 0 0 32764 6.9525508e-310 6.9525508e-310 6.9525508e-310
0.22224003 -0.051699888 0.081566028 2978052168 274 0 0 32764 6.9525508e-310 6.9525508e-310 6.9525508e-310
0.2034808 -0.076523535 0.084573314 2976407895 217 0 0 32764 6.9525508e-310 6.9525508e-310 6.9525508e-310
0.22021393 -0.051105771 0.079999849 2977197387 286 0 0 32764 6.9525508e-310 6.9525508e-310 6.9525508e-310
0.18632098 -0.072979003 0.071458288 3514990697 218 0 0 32764 6.9525508e-310 6.9525508e-310 6.9525508e-310
0.18596786 -0.072777472 0.071094796 3514990439 218 0 0 32764 6.9525508e-310 6.9525508e-310 6.9525508e-310
0.18675704 -0.073693864 0.071377382 3514990440 218 0 0 32764 6.9525508e-310 6.9525508e-310 6.9525508e-310
0.19121003 -0.076939359 0.073384307 3515252843 218 0 0 32764 6.9525508e-310 6.9525508e-310 6.9525508e-310
0.21462739 -0.049692266 0.076897375 3513738305 284 0 0 32764 6.9525508e-310 6.9525508e-310 6.9525508e-310
0.20376703 -0.08697819 0.077138528 3513607770 217 0 0 32764 6.9525508e-310 6.9525508e-310 6.9525508e-310
0.20658457 -0.078756578 0.08548943 3512621133 272 0 0 32764 6.9525508e-310 6.9525508e-310 6.9525508e-310
0.18884535 -0.074407302 0.072871424 3514859112 218 0 0 32764 6.9525508e-310 6.9525508e-310 6.9525508e-310
0.19433571 -0.079293363 0.074509919 3514398051 217 0 0 32764 6.9525508e-310 6.9525508e-310 6.9525508e-310
0.20177513 -0.07548324 0.083593838 3513213014 218 0 0 32764 6.9525508e-310 6.9525508e-310 6.9525508e-310
0.20411314 -0.069452897 0.089645922 3513805914 243 0 0 32764 6.9525508e-310 6.9525508e-310 6.9525508e-310
0.18569191 -0.071183108 0.07204885 1585610857 219 0 0 32764 6.9525508e-310 6.9525508e-310 6.9525508e-310
0.18705669 -0.072168365 0.072701 1585479271 219 0 0 32764 6.9525508e-310 6.9525508e-310 6.9525508e-310
0.22069331 -0.052924089 0.081559651 3077859906 286 0 0 32764 6.9525508e-310 6.9525508e-310 6.9525508e-310
0.21450561 -0.049852289 0.081875443 226918222 276 0 0 32764 6.9525508e-310 6.9525508e-310 6.9525508e-310
0.20595735 -0.075516023 0.086411014 3261357394 218 0 0 32764 6.9525508e-310 6.9525508e-310 6.9525508e-310
0.22067298 -0.049036704 0.10593429 2691918414 247 0 0 32764 6.9525508e-310 6.9525508e-310 6.9525508e-310
0.20601751 -0.073935062 0.087858655 2691655261 219 0 0 32764 6.9525508e-310 6.9525508e-310 6.9525508e-310
0.21090725 -0.047890976 0.10252989 2692905308 375 0 0 32764 6.9525508e-310 6.9525508e-310 6.9525508e-310
0.21975392 -0.048970878 0.10562644 2692576342 249 0 0 32764 6.9525508e-310 6.9525508e-310 6.9525508e-310
0.20764962 -0.048128735 0.078031279 3898956868 277 0 0 32764 6.9525508e-310 6.9525508e-310 6.9525508e-310
0.20953649 -0.047115486 0.10092668 1166243676 378 0 0 32764 6.9525508e-310 6.9525508e-310 6.9525508e-310
0.21329473 -0.04610214 0.10076522 2507894867 380 0 0 32764 6.9525508e-310 6.9525508e-310 6.9525508e-310
0.21369493 -0.046201613 0.10126562 2508027226 380 0 0 32764 6.9525508e-310 6.9525508e-310 6.9525508e-310
0.20833501 -0.046913642 0.099868543 2508158040 379 0 0 32764 6.9525508e-310 6.9525508e-310 6.9525508e-310
0.20871025 -0.046773162 0.099938355 2508092504 379 0 0 32764 6.9525508e-310 6.9525508e-310 6.9525508e-310
0.21379058 -0.046000697 0.10059253 545421407 381 0 0 32764 6.9525508e-310 6.9525508e-310 6.9525508e-310
0.21574539 -0.045379452 0.10038927 3766647131 357 0 0 32764 6.9525508e-310 6.9525508e-310 6.9525508e-310
0.22208096 -0.048001017 0.10309981 3765397068 248 0 0 32764 6.9525508e-310 6.9525508e-310 6.9525508e-310
0.21329209 -0.045425974 0.098982513 3765857620 401 0 0 32764 6.9525508e-310 6.9525508e-310 6.9525508e-310
0.21534859 -0.04587689 0.10042874 3766515292 382 0 0 32764 6.9525508e-310 6.9525508e-310 6.9525508e-310
0.22067279 -0.055433702 0.083322324 3764870206 288 0 0 32764 6.9525508e-310 6.9525508e-310 6.9525508e-310
0.21348485 -0.045423273 0.099384882 3766449499 382 0 0 32764 6.9525508e-310 6.9525508e-310 6.9525508e-310
0.20028871 -0.044796731 0.076771714 3766055249 236 0 0 32764 6.9525508e-310 6.9525508e-310 6.9525508e-310
0.21263933 -0.069764905 0.10240765 3581242449 367 0 0 32764 6.9525508e-310 6.9525508e-310 6.9525508e-310
0.21355736 -0.070499741 0.10005946 3581308500 367 0 0 32764 6.9525508e-310 6.9525508e-310 6.9525508e-310
0.21313293 -0.070869692 0.099017337 3581242195 367 0 0 32764 6.9525508e-310 6.9525508e-310 6.9525508e-310
0.21264301 -0.069173038 0.10186931 3581374293 367 0 0 32764 6.9525508e-310 6.9525508e-310 6.9525508e-310
0.2114543 -0.045241501 0.098006032 3581374295 402 0 0 32764 6.9525508e-310 6.9525508e-310 6.9525508e-310
0.21250507 -0.064266726 0.10375197 3581833558 366 0 0 32764 6.9525508e-310 6.9525508e-310 6.9525508e-310
0.21175301 -0.064963542 0.10445534 3581701971 366 0 0 32764 6.9525508e-310 6.9525508e-310 6.9525508e-310
0.21224833 -0.060775727 0.1022079 3581110097 368 0 0 32764 6.9525508e-310 6.9525508e-310 6.9525508e-310
0.2158958 -0.046586148 0.099024571 3581636948 357 0 0 32764 6.9525508e-310 6.9525508e-310 6.9525508e-310
0.21210393 -0.064156778 0.10429682 3581702227 366 0 0 32764 6.9525508e-310 6.9525508e-310 6.9525508e-310
0.21249452 -0.068263829 0.10433718 3581768019 366 0 0 32764 6.9525508e-310 6.9525508e-310 6.9525508e-310
0.21325874 -0.070648529 0.10003416 3581308244 367 0 0 32764 6.9525508e-310 6.9525508e-310 6.9525508e-310
0.21382253 -0.071191289 0.098573223 3581176659 367 0 0 32764 6.9525508e-310 6.9525508e-310 6.9525508e-310
0.21285567 -0.070783421 0.098573394 3581176402 367 0 0 32764 6.9525508e-310 6.9525508e-310 6.9525508e-310
0.21138999 -0.044740241 0.097146019 3581440345 402 0 0 32764 6.9525508e-310 6.9525508e-310 6.9525508e-310
0.21219307 -0.067675069 0.10301767 3581768020 366 0 0 32764 6.9525508e-310 6.9525508e-310 6.9525508e-310
0.21237271 -0.068688765 0.10269278 3581374037 367 0 0 32764 6.9525508e-310 6.9525508e-310 6.9525508e-310
0.21181847 -0.065348908 0.10459865 3581768021 366 0 0 32764 6.9525508e-310 6.9525508e-310 6.9525508e-310
0.21311736 -0.062335636 0.10295529 3581701971 366 0 0 32764 6.9525508e-310 6.9525508e-310 6.9525508e-310
0.21275182 -0.06969551 0.10171363 3581308499 367 0 0 32764 6.9525508e-310 6.9525508e-310 6.9525508e-310
0.20931175 -0.068829104 0.094394334 3581308250 237 0 0 32764 6.9525508e-310 6.9525508e-310 6.9525508e-310
0.21350768 -0.070013635 0.10024607 3581308244 367 0 0 32764 6.9525508e-310 6.9525508e-310 6.9525508e-310
0.2116832 -0.064233206 0.10419948 3581833813 366 0 0 32764 6.9525508e-310 6.9525508e-310 6.9525508e-310
0.2121661 -0.063852511 0.10421668 3581768020 366 0 0 32764 6.9525508e-310 6.9525508e-310 6.9525508e-310
0.21277735 -0.060110558 0.1031867 3581044560 368 0 0 32764 6.9525508e-310 6.9525508e-310 6.9525508e-310
0.21233214 -0.070978887 0.097812839 3581308243 367 0 0 32764 6.9525508e-310 6.9525508e-310 6.9525508e-310
0.21465145 -0.053536959 0.080657795 1583898689 280 0 0 32764 6.9525508e-310 6.9525508e-310 6.9525508e-310
0.22237782 -0.057559825 0.084874056 1583634236 288 0 0 32764 6.9525508e-310 6.9525508e-310 6.9525508e-310
0.22469591 -0.058597717 0.086313613 1583437113 277 0 0 32764 6.9525508e-310 6.9525508e-310 6.9525508e-310
0.21991447 -0.066002764 0.10576435 192441683 347 0 0 32764 6.9525508e-310 6.9525508e-310 6.9525508e-310
0.21000712 -0.067624718 0.09567938 192047445 238 0 0 32764 6.9525508e-310 6.9525508e-310 6.9525508e-310
0.2167754 -0.070030287 0.10515136 192244041 367 0 0 32764 6.9525508e-310 6.9525508e-310 6.9525508e-310
0.21688156 -0.070563957 0.10499942 192441420 367 0 0 32764 6.9525508e-310 6.9525508e-310 6.9525508e-310
0.21741731 -0.073002927 0.099097192 191718476 368 0 0 32764 6.9525508e-310 6.9525508e-310 6.9525508e-310
0.2170587 -0.072073951 0.09979333 191784011 368 0 0 32764 6.9525508e-310 6.9525508e-310 6.9525508e-310
0.21703188 -0.07183706 0.10042914 191916107 368 0 0 32764 6.9525508e-310 6.9525508e-310 6.9525508e-310
0.21710095 -0.071664803 0.10110869 191916108 368 0 0 32764 6.9525508e-310 6.9525508e-310 6.9525508e-310
0.21275312 -0.065275572 0.10226846 930704464 367 0 0 32764 6.9525508e-310 6.9525508e-310 6.9525508e-310
0.20721132 -0.064101018 0.095709279 929915983 239 0 0 32764 6.9525508e-310 6.9525508e-310 6.9525508e-310
0.20993172 -0.064444162 0.10122021 930573132 367 0 0 32764 6.9525508e-310 6.9525508e-310 6.9525508e-310
0.21337789 -0.064438075 0.10284982 930506829 367 0 0 32764 6.9525508e-310 6.9525508e-310 6.9525508e-310
0.21220003 -0.064236641 0.10176618 930507085 367 0 0 32764 6.9525508e-310 6.9525508e-310 6.9525508e-310
0.212752 -0.064826176 0.10246216 930572879 367 0 0 32764 6.9525508e-310 6.9525508e-310 6.9525508e-310
0.20405793 -0.042467546 0.091039822 1835951182 337 0 0 32764 6.9525508e-310 6.9525508e-310 6.9525508e-310
0.22023433 -0.054872695 0.08767876 1717589566 289 0 0 32764 6.9525508e-310 6.9525508e-310 6.9525508e-310
0.20830233 -0.04967865 0.081489608 1716866365 279 0 0 32764 6.9525508e-310 6.9525508e-310 6.9525508e-310
0.21647663 -0.056851503 0.079952098 2824557113 295 0 0 32764 6.9525508e-310 6.9525508e-310 6.9525508e-310
0.21161175 -0.054557864 0.079372302 1801739070 280 0 0 32764 6.9525508e-310 6.9525508e-310 6.9525508e-310
0.20904666 -0.049941756 0.082995027 1800357954 281 0 0 32764 6.9525508e-310 6.9525508e-310 6.9525508e-310
0.19850126 -0.050122537 0.076328516 577397578 237 0 0 32764 6.9525508e-310 6.9525508e-310 6.9525508e-310
0.19823094 -0.050325241 0.076073647 577397577 237 0 0 32764 6.9525508e-310 6.9525508e-310 6.9525508e-310
0.198599 -0.049988691 0.076877467 576673860 238 0 0 32764 6.9525508e-310 6.9525508e-310 6.9525508e-310
0.19835845 -0.049538974 0.077571839 576805189 238 0 0 32764 6.9525508e-310 6.9525508e-310 6.9525508e-310
0.19628017 -0.049541015 0.074175663 577397577 237 0 0 32764 6.9525508e-310 6.9525508e-310 6.9525508e-310
0.19860823 -0.050373174 0.076712906 577397578 237 0 0 32764 6.9525508e-310 6.9525508e-310 6.9525508e-310
0.19612424 -0.04953571 0.073873408 575949108 270 0 0 32764 6.9525508e-310 6.9525508e-310 6.9525508e-310
0.19798291 -0.049215317 0.076841585 576739397 238 0 0 32764 6.9525508e-310 6.9525508e-310 6.9525508e-310
0.19869322 -0.050132394 0.077516846 576673859 238 0 0 32764 6.9525508e-310 6.9525508e-310 6.9525508e-310
0.20183399 -0.050918523 0.076389059 3076544578 238 0 0 32764 6.9525508e-310 6.9525508e-310 6.9525508e-310
0.2021801 -0.048600044 0.082486317 3074899506 292 0 0 32764 6.9525508e-310 6.9525508e-310 6.9525508e-310
0.20199414 -0.050922863 0.076703787 3076478786 238 0 0 32764 6.9525508e-310 6.9525508e-310 6.9525508e-310
0.20118241 -0.050608397 0.075044103 3076149306 255 0 0 32764 6.9525508e-310 6.9525508e-310 6.9525508e-310
0.20230865 -0.049943291 0.079984091 3075820861 279 0 0 32764 6.9525508e-310 6.9525508e-310 6.9525508e-310
0.20170705 -0.050552703 0.076260336 3076610627 238 0 0 32764 6.9525508e-310 6.9525508e-310 6.9525508e-310
0.20211338 -0.048461221 0.082725026 3074767921 292 0 0 32764 6.9525508e-310 6.9525508e-310 6.9525508e-310
0.19860649 -0.044724669 0.083800867 3797438526 292 0 0 32764 6.9525508e-310 6.9525508e-310 6.9525508e-310
0.19833852 -0.045579776 0.081759103 3796385589 292 0 0 32764 6.9525508e-310 6.9525508e-310 6.9525508e-310
0.1965813 -0.046065979 0.076854788 3797372735 239 0 0 32764 6.9525508e-310 6.9525508e-310 6.9525508e-310
0.19880401 -0.043739598 0.085223414 3796846140 353 0 0 32764 6.9525508e-310 6.9525508e-310 6.9525508e-310
