# .PCD v0.7 - Point Cloud Data file format
VERSION 0.7
FIELDS x y z rgb
SIZE 4 4 4 4
TYPE F F F U
COUNT 1 1 1 1
WIDTH 152
HEIGHT 1
VIEWPOINT 0 0 0 1 0 0 0
POINTS 152
DATA ascii
0.091180712 -0.17095156 0.04098919 4278190080
0.092422225 -0.17088071 0.042931639 4278190080
0.092991248 -0.17085135 0.043758757 4278190080
0.087075934 -0.17114109 0.035473455 4278190080
0.091085173 -0.16809504 0.04085575 4278190080
0.089404628 -0.16818017 0.038444653 4278190080
0.089112706 -0.1681916 0.038094021 4278190080
0.095387243 -0.17430817 0.046671391 4278190080
0.09538725 -0.17430803 0.046671398 4278190080
0.095292419 -0.17361657 0.046642631 4278190080
0.095292434 -0.17361657 0.046642646 4278190080
0.09247303 -0.16803426 0.042653717 4278190080
0.086262025 -0.17119536 0.034041412 4278190080
0.095408969 -0.17361139 0.046795197 4278190080
0.085559919 -0.17410229 0.032827716 4278190080
0.086067542 -0.17697896 0.032721344 4278190080
0.086086981 -0.17654309 0.032919705 4278190080
0.093933582 -0.17372696 0.043851241 4278190080
0.086187847 -0.17406462 0.033847328 4278190080
0.089356795 -0.17102371 0.038782582 4278190080
0.088919505 -0.17104161 0.038241424 4278190080
0.087239392 -0.17399913 0.035603605 4278190080
0.086173542 -0.1769705 0.032936096 4278190080
0.087335616 -0.17985108 0.033017956 4278190080
0.087335587 -0.17985107 0.033017956 4278190080
0.089287691 -0.17388803 0.038690921 4278190080
0.089055046 -0.17389904 0.038372926 4278190080
0.088714734 -0.18777548 0.033333033 4278190080
0.088823766 -0.18552844 0.034537029 4278190080
0.087540597 -0.18271005 0.033146098 4278190080
0.087784104 -0.17686579 0.035715319 4278190080
0.088204794 -0.1855794 0.033252034 4278190080
0.089255378 -0.17469895 0.038401708 4278190080
0.091415003 -0.17381121 0.041115917 4278190080
0.091695644 -0.19116814 0.037384987 4278190080
0.092315443 -0.17378183 0.042079009 4278190080
0.08925508 -0.18260768 0.035920296 4278190080
0.089569151 -0.18546912 0.036043163 4278190080
0.088999264 -0.18053348 0.035832625 4278190080
0.089760192 -0.1767693 0.038476881 4278190080
0.088928483 -0.18262935 0.03534802 4278190080
0.08902692 -0.17973638 0.036032248 4278190080
0.08902692 -0.17973639 0.036032218 4278190080
0.088896297 -0.17974524 0.035799589 4278190080
0.088896297 -0.17974523 0.035799589 4278190080
0.09036921 -0.18834153 0.036142528 4278190080
0.092419803 -0.19110112 0.039038543 4278190080
0.089170583 -0.17679924 0.037629638 4278190080
0.090414084 -0.17963843 0.038583312 4278190080
0.09041407 -0.17963842 0.038583316 4278190080
0.092183918 -0.17788279 0.04127482 4278190080
0.091287851 -0.18536684 0.038817171 4278190080
0.090781502 -0.18250106 0.038703602 4278190080
0.091837972 -0.18816766 0.038925432 4278190080
0.091850594 -0.1882339 0.038928013 4278190080
0.091835044 -0.18823513 0.038896512 4278190080
0.092232391 -0.17665976 0.041705556 4278190080
0.091862321 -0.17667566 0.041232336 4278190080
0.092044428 -0.182437 0.040517211 4278190080
0.092525512 -0.179545 0.041338321 4278190080
0.092525497 -0.17954499 0.041338321 4278190080
0.091949634 -0.1853264 0.0399068 4278190080
0.093884103 -0.17658022 0.043991689 4278190080
0.092119381 -0.17956696 0.040727232 4278190080
0.092119381 -0.17956698 0.040727209 4278190080
0.098147936 -0.17639428 0.049499698 4278190080
0.095310353 -0.17650454 0.046107475 4278190080
0.098350316 -0.1763864 0.049742226 4278190080
0.098350339 -0.1763864 0.049742319 4278190080
0.10131971 -0.17913403 0.053255681 4278190080
0.10131971 -0.17913401 0.053255696 4278190080
0.095213585 -0.17939588 0.045457106 4278190080
0.095213585 -0.17939585 0.045457143 4278190080
0.093010657 -0.18526465 0.041590974 4278190080
0.094370157 -0.17944555 0.044106238 4278190080
0.094370127 -0.17944553 0.044106241 4278190080
0.09268219 -0.18240288 0.041468803 4278190080
0.10059959 -0.17916292 0.052376311 4278190080
0.10059958 -0.1791629 0.052376311 4278190080
0.095754325 -0.17648135 0.046758361 4278190080
0.095754266 -0.17648135 0.04675835 4278190080
0.097977057 -0.18793826 0.04741928 4278190080
0.097977035 -0.18793826 0.047419183 4278190080
0.097772978 -0.18794432 0.047212966 4278190080
0.097772919 -0.18794432 0.047212955 4278190080
0.097948574 -0.18883012 0.047247127 4278190080
0.097948566 -0.18883044 0.047247127 4278190080
0.097948581 -0.18883051 0.047247145 4278190080
0.097948574 -0.18883082 0.047247145 4278190080
0.10003754 -0.18785436 0.049960546 4278190080
0.098063305 -0.18505721 0.047857225 4278190080
0.09806329 -0.18505721 0.047857136 4278190080
0.098265536 -0.19080982 0.047327202 4278190080
0.098265491 -0.19080982 0.047327191 4278190080
0.097884141 -0.19082585 0.04684655 4278190080
0.097884119 -0.19082586 0.046846446 4278190080
0.097289965 -0.18507907 0.047098268 4278190080
0.097289905 -0.18507907 0.047098257 4278190080
0.099658206 -0.18499143 0.049840834 4278190080
0.10102417 -0.18781313 0.051198658 4278190080
0.10045859 -0.19071823 0.050078239 4278190080
0.10093333 -0.1906987 0.050667856 4278190080
0.095380664 -0.18803142 0.04447154 4278190080
0.10111248 -0.18493006 0.05167821 4278190080
0.095825292 -0.19089583 0.044588096 4278190080
0.10227138 -0.18776369 0.052709635 4278190080
0.10085872 -0.19292554 0.050165214 4278190080
0.098158292 -0.1821676 0.048471555 4278190080
0.09815827 -0.18216762 0.048471443 4278190080
0.098697573 -0.19367394 0.047444351 4278190080
0.098697618 -0.19367394 0.047444366 4278190080
0.094938219 -0.18805528 0.043807581 4278190080
0.099090405 -0.18212427 0.049730234 4278190080
0.095088832 -0.18517047 0.044347595 4278190080
0.095025413 -0.1851733 0.044264574 4278190080
0.10180582 -0.18489882 0.052594092 4278190080
0.096651047 -0.1822103 0.04699111 4278190080
0.096650988 -0.1822103 0.046991099 4278190080
0.097789742 -0.19371489 0.046244107 4278190080
0.097789727 -0.19371489 0.04624401 4278190080
0.095038109 -0.18475088 0.044329807 4278190080
0.10083672 -0.19358988 0.050020762 4278190080
0.10097421 -0.19358423 0.050191361 4278190080
0.10272694 -0.19062835 0.05282566 4278190080
0.094840556 -0.1909475 0.043139044 4278190080
0.096399657 -0.19376315 0.044698376 4278190080
0.10121054 -0.18234949 0.052500226 4278190080
0.095115289 -0.18228869 0.044775791 4278190080
0.10113898 -0.18202943 0.052488282 4278190080
0.1012221 -0.18202618 0.052588146 4278190080
0.094694443 -0.18230721 0.044228613 4278190080
0.10396679 -0.19058692 0.0541711 4278190080
0.093542598 -0.18813102 0.041703306 4278190080
0.10405989 -0.18769915 0.054747492 4278190080
0.10323598 -0.1934942 0.052939102 4278190080
0.0940127 -0.19099599 0.04181863 4278190080
0.098277301 -0.17939925 0.049638644 4278190080
0.098277293 -0.17939906 0.049638636 4278190080
0.099074207 -0.19653678 0.047564194 4278190080
0.099074267 -0.19653678 0.047564205 4278190080
0.098223664 -0.17925037 0.049634095 4278190080
0.098223664 -0.17925036 0.049634095 4278190080
0.098283663 -0.17924833 0.049700044 4278190080
0.098283686 -0.17924833 0.049700141 4278190080
0.098283663 -0.17924832 0.049700052 4278190080
0.098283686 -0.17924832 0.049700145 4278190080
0.10074396 -0.19647729 0.049451321 4278190080
0.09605056 -0.1793424 0.046882093 4278190080
0.096050516 -0.1793424 0.046882082 4278190080
0.09605056 -0.17934239 0.046882093 4278190080
0.096050501 -0.17934239 0.046882082 4278190080
0.094747454 -0.19383527 0.042562701 4278190080
