# .PCD v0.7 - Point Cloud Data file format
VERSION 0.7
FIELDS x y z rgb
SIZE 4 4 4 4
TYPE F F F U
COUNT 1 1 1 1
WIDTH 139
HEIGHT 1
VIEWPOINT 0 0 0 1 0 0 0
POINTS 139
DATA ascii
0.068258099 -0.12488361 -0.0031191232 4278190080
0.069997624 -0.11978661 -0.0034651039 4278190080
0.07019823 -0.11926634 -0.0035003899 4278190080
0.070198245 -0.11926632 -0.0035003908 4278190080
0.067502134 -0.1250433 -0.0059731137 4278190080
0.065619588 -0.1280044 -0.0086371666 4278190080
0.063894749 -0.12883037 -0.011446896 4278190080
0.070183814 -0.11606234 -0.0065832315 4278190080
0.070157781 -0.11656757 -0.005988718 4278190080
0.069094874 -0.12206881 -0.0033103507 4278190080
0.066774391 -0.12786601 -0.0058234232 4278190080
0.066789977 -0.12786387 -0.005781332 4278190080
0.070022769 -0.11928663 -0.0039174985 4278190080
0.070022769 -0.11928665 -0.0039174678 4278190080
0.066770844 -0.12793812 -0.0057762852 4278190080
0.070143223 -0.1139461 -0.009591789 4278190080
0.069934793 -0.11659532 -0.0065471409 4278190080
0.067043632 -0.1223875 -0.0093756327 4278190080
0.067836672 -0.11954645 -0.0092121521 4278190080
0.067836702 -0.11954643 -0.009212153 4278190080
0.067175634 -0.12236936 -0.0090201432 4278190080
0.067003302 -0.12321963 -0.0089622755 4278190080
0.068975061 -0.11674559 -0.0094020376 4278190080
0.06652043 -0.12519257 -0.0088281082 4278190080
0.069429822 -0.11410777 -0.012445592 4278190080
0.066909328 -0.12514314 -0.0078391256 4278190080
0.068967909 -0.1194041 -0.0063564936 4278190080
0.068967938 -0.11940408 -0.0063564936 4278190080
0.063928418 -0.12815377 -0.011977299 4278190080
0.06818036 -0.12222117 -0.0061650472 4278190080
0.064163581 -0.12813173 -0.011494278 4278190080
0.067178383 -0.11965515 -0.011253193 4278190080
0.067178383 -0.11965518 -0.011253121 4278190080
0.067911536 -0.11442686 -0.018153604 4278190080
0.06791155 -0.11442686 -0.018153585 4278190080
0.06807936 -0.11689883 -0.012256653 4278190080
0.067481428 -0.11405177 -0.021043692 4278190080
0.068646409 -0.11426619 -0.015299705 4278190080
0.067315489 -0.11704291 -0.014887375 4278190080
0.066021845 -0.12251067 -0.01187591 4278190080
0.066908188 -0.11969817 -0.012066917 4278190080
0.066908218 -0.11969814 -0.012066917 4278190080
0.062833615 -0.12826489 -0.014350823 4278190080
0.06721171 -0.11901793 -0.012112997 4278190080
0.061046664 -0.12912111 -0.017158566 4278190080
0.06104666 -0.12912118 -0.017158542 4278190080
0.065143354 -0.12532355 -0.011684869 4278190080
0.064874813 -0.12265228 -0.014731639 4278190080
0.065934151 -0.11984778 -0.014921875 4278190080
0.065934181 -0.11984776 -0.014921876 4278190080
0.064093225 -0.12484202 -0.014583047 4278190080
0.063888699 -0.12546019 -0.014541077 4278190080
0.061082147 -0.12842588 -0.017902222 4278190080
0.064063512 -0.12543926 -0.014115465 4278190080
0.06138666 -0.12839265 -0.017207894 4278190080
0.06138669 -0.12839265 -0.017207876 4278190080
0.067408785 -0.11533622 -0.018092107 4278190080
0.067408793 -0.11533617 -0.018092129 4278190080
0.067198083 -0.11458852 -0.021007385 4278190080
0.067454495 -0.11452857 -0.019954648 4278190080
0.067248598 -0.11705507 -0.015110974 4278190080
0.067322865 -0.11690582 -0.015121075 4278190080
0.061218437 -0.12577212 -0.020929139 4278190080
0.061477471 -0.12573799 -0.020253047 4278190080
0.061187934 -0.126362 -0.020210791 4278190080
0.064244367 -0.12187096 -0.017649764 4278190080
0.064244367 -0.12187102 -0.017649742 4278190080
0.063857123 -0.12279988 -0.017586797 4278190080
0.063857138 -0.12279988 -0.017586779 4278190080
0.064934336 -0.1199962 -0.017776955 4278190080
0.064934351 -0.11999618 -0.017776957 4278190080
0.064934351 -0.1199962 -0.017776936 4278190080
0.064934365 -0.11999618 -0.017776938 4278190080
0.064199083 -0.1227482 -0.016596939 4278190080
0.062714316 -0.12560055 -0.017396934 4278190080
0.062714346 -0.12560055 -0.017396916 4278190080
0.066400312 -0.11721049 -0.01796538 4278190080
0.066400342 -0.11721049 -0.017965361 4278190080
0.058927082 -0.12866822 -0.022920076 4278190080
0.060145713 -0.12852992 -0.020064026 4278190080
0.067529522 -0.11329496 -0.023959257 4278190080
0.066642553 -0.11475748 -0.023860484 4278190080
0.064351074 -0.11985455 -0.020651292 4278190080
0.064191341 -0.1201565 -0.02063087 4278190080
0.064191371 -0.12015647 -0.020630872 4278190080
0.065707855 -0.11737312 -0.020819068 4278190080
0.06433598 -0.12012572 -0.02008188 4278190080
0.06433598 -0.12012573 -0.020081785 4278190080
0.062762804 -0.12294393 -0.020442277 4278190080
0.06033567 -0.12587985 -0.023108758 4278190080
0.061981935 -0.12063826 -0.029192584 4278190080
0.061981905 -0.12063828 -0.029192582 4278190080
0.061496358 -0.12073867 -0.03099376 4278190080
0.061496358 -0.12073866 -0.030993911 4278190080
0.063624159 -0.11786072 -0.029380221 4278190080
0.061456054 -0.1214302 -0.029139157 4278190080
0.061522193 -0.12028545 -0.032081209 4278190080
0.061200868 -0.12079679 -0.032046691 4278190080
0.061200809 -0.12079681 -0.032046687 4278190080
0.062979482 -0.11802556 -0.032233719 4278190080
0.062723257 -0.12047791 -0.026338656 4278190080
0.062723301 -0.12047789 -0.026338657 4278190080
0.06455265 -0.11635266 -0.029482052 4278190080
0.064319946 -0.11769824 -0.026526496 4278190080
0.064490944 -0.11740212 -0.026546508 4278190080
0.060092092 -0.12340439 -0.029006042 4278190080
0.061394993 -0.12246578 -0.026204562 4278190080
0.064476036 -0.11766496 -0.025932737 4278190080
0.064600967 -0.1155909 -0.032397959 4278190080
0.061582655 -0.11926277 -0.03501492 4278190080
0.065323621 -0.1150858 -0.029567607 4278190080
0.059421785 -0.12356804 -0.031859655 4278190080
0.060838781 -0.12324427 -0.026152093 4278190080
0.062339388 -0.11819061 -0.035087191 4278190080
0.064813912 -0.11525688 -0.032420501 4278190080
0.060446721 -0.12095657 -0.034900665 4278190080
0.060446676 -0.12095659 -0.034900665 4278190080
0.064618416 -0.11532383 -0.033534385 4278190080
0.063510224 -0.12031965 -0.023484528 4278190080
0.063510254 -0.12031963 -0.02348453 4278190080
0.061355278 -0.12314685 -0.024373349 4278190080
0.065956734 -0.11492041 -0.026714161 4278190080
0.064420961 -0.11862935 -0.023598831 4278190080
0.06506528 -0.11753806 -0.023672555 4278190080
0.064307258 -0.11542809 -0.035273381 4278190080
0.058711916 -0.12372987 -0.03471344 4278190080
0.058419198 -0.1255004 -0.031728934 4278190080
0.061733127 -0.12309097 -0.023297489 4278190080
0.064642943 -0.11496533 -0.035304561 4278190080
0.058697496 -0.12619342 -0.0288173 4278190080
0.05849465 -0.12415557 -0.034684636 4278190080
0.058376383 -0.12626083 -0.030023616 4278190080
0.06131592 -0.12388842 -0.023243546 4278190080
0.059518639 -0.12603673 -0.02596302 4278190080
0.05851604 -0.12377977 -0.035577703 4278190080
0.061631691 -0.11848558 -0.037931882 4278190080
0.061631691 -0.11848561 -0.037931953 4278190080
0.061732776 -0.11835721 -0.037940517 4278190080
0.061732791 -0.11835721 -0.037940592 4278190080
