# .PCD v0.7 - Point Cloud Data file format
VERSION 0.7
FIELDS x y z rgba label
SIZE 4 4 4 4 4
TYPE F F F U U
COUNT 1 1 1 1 1
WIDTH 699
HEIGHT 1
VIEWPOINT 0 0 0 1 0 0 0
POINTS 699
DATA ascii
0.089324594 -0.001958855 -0.0095956773 4278190080 31359
0.08932288 -0.0021739879 -0.0095940446 4278190080 31431
0.088927224 -0.001299315 -0.0097737955 4278190080 33648
0.089290753 -0.003032953 -0.0095849447 4278190080 31991
0.089343384 0.0019082653 -0.010699983 4278190080 34572
0.09117955 0.004314268 -0.012024449 4278190080 31325
0.091916651 0.0049954178 -0.012343666 4278190080 28606
0.090432458 0.003643648 -0.01170764 4278190080 28328
0.090169974 -0.0052534491 -0.0092252381 4278190080 33948
0.09320277 0.0059333025 -0.01274022 4278190080 34885
0.088694751 0.0010562 -0.010406453 4278190080 29938
0.088803381 0.00148147 -0.010635408 4278190080 28536
0.092821643 0.0059160511 -0.012913763 4278190080 31322
0.099079967 0.0064359596 -0.010409712 4278190080 31855
0.095079161 0.0051077632 -0.010918532 4278190080 31319
0.095088765 0.0053357859 -0.011150297 4278190080 33178
0.099665247 0.0067020492 -0.010469851 4278190080 34090
0.098668925 0.0066526346 -0.010845916 4278190080 29197
0.092478529 0.0034646986 -0.010622959 4278190080 35196
0.099548116 0.0069350754 -0.010699742 4278190080 33624
0.097704761 0.0068387925 -0.011452943 4278190080 34481
0.10270479 0.0068513714 -0.0095356125 4278190080 34262
0.095096633 0.006019257 -0.011843365 4278190080 32521
0.091068521 0.0025658493 -0.010462652 4278190080 35071
0.093062885 0.0048133577 -0.011593031 4278190080 35256
0.10408308 0.0064183353 -0.0089003975 4278190080 29484
0.092655689 0.0045780861 -0.011542952 4278190080 28102
0.10232168 0.0073238551 -0.0099987006 4278190080 31619
0.093856558 0.0055138669 -0.01191846 4278190080 35204
0.09232454 0.0043466496 -0.011501953 4278190080 28408
0.096079826 0.0067533804 -0.012196976 4278190080 31737
0.093487158 0.0054988586 -0.012098756 4278190080 32887
0.092281178 0.0045665405 -0.011720637 4278190080 34328
0.10314174 0.0073675876 -0.0098260678 4278190080 28535
0.089859195 0.00083012565 -0.0098856436 4278190080 33791
0.10454808 0.0066899131 -0.0089395642 4278190080 33638
0.090372019 0.0023430458 -0.010602693 4278190080 34321
0.10498078 0.0064574443 -0.0087195672 4278190080 32502
0.096745789 0.0072507649 -0.012514434 4278190080 30834
0.098793678 0.0078416159 -0.012057777 4278190080 32331
0.089929536 0.0016931295 -0.010332162 4278190080 34388
0.089721203 -0.0019755841 -0.0094199162 4278190080 27946
0.089366511 -0.0010994842 -0.0096057802 4278190080 30563
0.090184711 0.0027743501 -0.011019228 4278190080 28183
0.10751393 0.0029643958 -0.0039660172 4278190080 30273
0.099521093 0.0050233672 -0.0092445007 4278190080 28362
0.093550213 0.0025860267 -0.0096070189 4278190080 31809
0.096705168 0.004700887 -0.0099281594 4278190080 34169
0.09514568 0.0039690719 -0.010000856 4278190080 31220
0.10124728 0.0053217476 -0.0089094304 4278190080 34444
0.097176105 0.0049479222 -0.0099756317 4278190080 27540
0.10462705 0.0044337041 -0.0071644736 4278190080 31160
0.091025725 -0.00027754172 -0.0091228113 4278190080 34248
0.093224429 0.0030307884 -0.010027651 4278190080 30099
0.10011836 0.0057637272 -0.0095431749 4278190080 32584
0.10279595 0.0053745601 -0.0085421382 4278190080 30105
0.098329067 0.0056931921 -0.010092803 4278190080 30848
0.096891128 0.0054036542 -0.010418092 4278190080 34758
0.10219987 0.0058451942 -0.0089917546 4278190080 28797
0.092666097 0.0030237131 -0.010193895 4278190080 31009
0.091026939 0.001035765 -0.0095704552 4278190080 34246
0.090533212 -0.00462749 -0.0090466961 4278190080 33669
0.10689814 0.003213915 -0.0044638114 4278190080 29544
0.095908269 0.0053668953 -0.010779813 4278190080 28899
0.090158135 -0.0035147574 -0.0092358496 4278190080 29426
0.093293406 0.0016881378 -0.009126327 4278190080 32463
0.091060109 -0.0035684295 -0.0088844365 4278190080 34466
0.097655833 0.0042603328 -0.0093114292 4278190080 30079
0.091142528 -0.0013773708 -0.0089068552 4278190080 33099
0.091621764 -7.095559e-05 -0.0089599667 4278190080 35481
0.091313809 -0.0007237895 -0.0089270985 4278190080 30184
0.093106024 -0.010196656 -0.0081314417 4278190080 34471
0.093554936 -0.010705654 -0.0079397345 4278190080 34994
0.094268247 0.0030442597 -0.0096799508 4278190080 35550
0.094595715 0.0032755949 -0.0097133638 4278190080 28465
0.096872471 0.0016829632 -0.0078224987 4278190080 33406
0.094321072 -0.00058109825 -0.0078420918 4278190080 30167
0.09478762 0.00077500485 -0.0081160041 4278190080 29483
0.094187133 0.00010233973 -0.0080632577 4278190080 28560
0.095842533 0.0016843923 -0.0082068322 4278190080 34647
0.092876643 -0.0025572749 -0.0081639318 4278190080 28428
0.09297166 -0.0018898788 -0.0081762876 4278190080 28375
0.093897648 0.0003333686 -0.0082678637 4278190080 27679
0.099067733 0.0033440636 -0.0082381433 4278190080 28906
0.092402972 -0.0045388583 -0.008334049 4278190080 34904
0.10240741 0.0036413453 -0.0072655245 4278190080 33956
0.092354372 -0.0052029672 -0.0083254334 4278190080 35151
0.095106252 0.0019138684 -0.0086077135 4278190080 28840
0.096219011 0.0026075919 -0.0087071341 4278190080 34075
0.092437945 -0.0058778161 -0.0083279992 4278190080 35123
0.1030758 0.0036530949 -0.0070609893 4278190080 31388
0.09421666 0.0012342796 -0.0085273907 4278190080 34616
0.092763647 -0.00076451979 -0.0083902022 4278190080 30199
0.10357575 0.0036623136 -0.0068429336 4278190080 34560
0.10287431 0.0038965298 -0.0072979401 4278190080 28811
0.091966398 -0.0036223144 -0.0085246479 4278190080 31969
0.091965482 -0.0025141931 -0.0085320435 4278190080 28898
0.091992065 -0.0022938498 -0.0085358582 4278190080 28460
0.092092477 -0.0014109421 -0.0085506067 4278190080 32678
0.092149787 -0.0011910617 -0.0085571082 4278190080 32105
0.09250772 -0.0076670111 -0.0083218785 4278190080 33230
0.10025639 0.0043245531 -0.0085790278 4278190080 33097
0.10583478 0.0031994181 -0.0049352804 4278190080 33314
0.092015915 -0.0067294203 -0.0085080219 4278190080 32402
0.093066528 -0.0090703098 -0.008135763 4278190080 31421
0.10218187 0.0043723811 -0.0079947934 4278190080 33340
0.091527745 -0.0031551898 -0.0087099168 4278190080 31333
0.091484025 -0.0038139888 -0.008701534 4278190080 28052
0.091462299 -0.0049144756 -0.00869215 4278190080 27494
0.093234845 0.0012404097 -0.0088932095 4278190080 30959
0.093541726 -0.010027736 -0.0079432372 4278190080 32144
0.092074133 -0.0076223826 -0.0085070962 4278190080 33876
0.10412346 0.004171262 -0.0071308184 4278190080 29491
0.098258249 0.004275295 -0.0091288742 4278190080 29971
0.09155748 -0.006686586 -0.0086887507 4278190080 29975
0.09871082 0.0045233904 -0.0091701755 4278190080 29270
0.10264871 0.0024169048 -0.0057879617 4278190080 33998
0.098432817 0.0016808762 -0.0072283125 4278190080 30889
0.1048198 0.0026831306 -0.0048896885 4278190080 29595
0.10004409 0.0023993123 -0.0071017821 4278190080 32900
0.10952607 -0.0014892006 -0.00056533772 4278190080 31257
0.10146882 0.0028946225 -0.0069541233 4278190080 30249
0.098235041 0.0019170321 -0.0074532386 4278190080 29311
0.094342515 -0.0019446216 -0.0076072211 4278190080 35355
0.10841537 0.00089116266 -0.0021500806 4278190080 30149
0.098977298 0.0023929686 -0.0075088423 4278190080 27924
0.097072326 0.0014495916 -0.0076020081 4278190080 32098
0.10449151 0.0031804147 -0.0056354376 4278190080 29619
0.094798699 -0.00059326325 -0.0076507255 4278190080 35145
0.10145455 0.0031375757 -0.0071994858 4278190080 27891
0.095135733 8.5099287e-05 -0.007680716 4278190080 30030
0.093339913 -0.0037039181 -0.0079696039 4278190080 30356
0.097529426 -0.0051277601 -0.0061806776 4278190080 28654
0.098531432 -0.0032991006 -0.005776444 4278190080 30856
0.097261809 -0.0097977435 -0.0063682124 4278190080 31303
0.097268783 -0.010033016 -0.0063670627 4278190080 29448
0.098637022 -0.0021158948 -0.005790012 4278190080 35549
0.099221833 -0.001661011 -0.0055852011 4278190080 34343
0.097745918 -0.01103363 -0.0061538382 4278190080 33873
0.096820205 -0.009511577 -0.0065765819 4278190080 34228
0.10101635 -0.00075028499 -0.0049524563 4278190080 33365
0.096206002 -0.0078160493 -0.0067809056 4278190080 30287
0.097593598 -0.0027799341 -0.0062001352 4278190080 31435
0.096136227 -0.0066503584 -0.0067841313 4278190080 30111
0.096204475 -0.0080477437 -0.0067792526 4278190080 30719
0.10322013 -0.00055736676 -0.0040548709 4278190080 32240
0.097078495 -0.0034576093 -0.0063994839 4278190080 35368
0.096254893 -0.0087489951 -0.0067778677 4278190080 28275
0.09613765 -0.0057236636 -0.0067904363 4278190080 33450
0.098226584 -0.01228068 -0.0059368587 4278190080 28727
0.096595027 -0.0038969642 -0.0065999269 4278190080 29861
0.10335901 -0.00031167717 -0.0040612607 4278190080 33386
0.09633705 -0.0096869431 -0.0067769838 4278190080 33331
0.10513102 -0.00085379009 -0.0031040641 4278190080 31411
0.096102692 -0.0047942819 -0.0067943675 4278190080 35235
0.098199211 -0.0125133 -0.005933769 4278190080 28339
0.0987546 -0.013069422 -0.005485123 4278190080 32836
0.10069986 -0.00025722824 -0.00518465 4278190080 35088
0.096588582 -0.0034309127 -0.0066026407 4278190080 34815
0.095788389 -0.0082359193 -0.0069814818 4278190080 29218
0.095680125 -0.0063794954 -0.0069865524 4278190080 33764
0.095682323 -0.0061490904 -0.0069882479 4278190080 32158
0.09627717 -0.010143598 -0.0067699845 4278190080 30083
0.096622661 -0.0031999636 -0.0066063465 4278190080 28419
0.097761281 -0.0016099422 -0.0062177689 4278190080 30729
0.097216368 -0.0020594043 -0.0064172419 4278190080 33398
0.10692862 -0.001669987 -0.0018530968 4278190080 32080
0.096301176 -0.010842849 -0.0067668757 4278190080 28775
0.095284462 -0.0081827044 -0.0071771084 4278190080 30492
0.098631553 -0.00045257088 -0.0060386234 4278190080 33652
0.095176622 -0.0054185851 -0.0071880487 4278190080 31660
0.10426964 0.0004230942 -0.0038458505 4278190080 33725
0.10771584 -0.0019543555 -0.0013412938 4278190080 31259
0.094830826 -0.0079064136 -0.007375462 4278190080 31798
0.094800398 -0.0076747406 -0.0073747966 4278190080 29607
0.096218564 -0.002251429 -0.0068190321 4278190080 33052
0.10203913 0.00094328844 -0.0050086933 4278190080 33053
0.098327138 -0.00020911993 -0.0062602381 4278190080 30871
0.094721027 -0.006068679 -0.0073797889 4278190080 30892
0.096276574 -0.0020219847 -0.0068243854 4278190080 31425
0.099075571 0.00025255137 -0.0060682334 4278190080 35201
0.095696867 -0.002690546 -0.007012439 4278190080 31082
0.096628778 -0.012748411 -0.0065427753 4278190080 28872
0.096309759 -0.0017912477 -0.0068281139 4278190080 31902
0.10771577 -0.0011764901 -0.0016062891 4278190080 32300
0.097046822 -0.00088383991 -0.0066487268 4278190080 28953
0.10178777 0.0011900279 -0.0052447529 4278190080 29717
0.10468849 0.00092135824 -0.0038624939 4278190080 27776
0.095862538 -0.011939969 -0.0069616907 4278190080 27949
0.10551146 0.00066085975 -0.0033779547 4278190080 30400
0.10825744 -0.0017119856 -0.0010858261 4278190080 27821
0.094878547 -0.010197706 -0.0073635555 4278190080 30256
0.094292462 -0.0069418699 -0.0075698509 4278190080 31173
0.094331861 -0.0078549189 -0.0075666863 4278190080 31039
0.094367936 -0.0083135329 -0.0075663254 4278190080 28628
0.10308772 0.0014302378 -0.0048094103 4278190080 31387
0.10038527 0.001197878 -0.0059059355 4278190080 28941
0.096586503 -0.0008711238 -0.006852481 4278190080 35052
0.10903677 -0.0027866531 -0.00029356414 4278190080 33082
0.10924142 -0.0033212509 -2.6048814e-05 4278190080 30366
0.10415142 0.0014265825 -0.0043511628 4278190080 33160
0.094697818 -0.0035561817 -0.0073949713 4278190080 32418
0.096711412 -0.00064183678 -0.0068622325 4278190080 33978
0.09999375 0.001199837 -0.0061260485 4278190080 32148
0.10950357 -0.0038609682 0.00024288923 4278190080 28705
0.094701558 -0.0033281581 -0.0073967762 4278190080 29051
0.10655304 0.00064994162 -0.0028919226 4278190080 31152
0.097719446 0.00027336122 -0.0066990815 4278190080 29222
0.095373273 -0.012099157 -0.0071570887 4278190080 31721
0.10936952 -0.0030637858 -2.7161112e-05 4278190080 27985
0.095078878 -0.013410022 -0.003919716 4278190080 35197
0.098806284 0.00096921809 -0.0065343664 4278190080 33659
0.093810886 -0.0062187049 -0.0077644354 4278190080 28810
0.10861505 -0.0012005727 -0.0010910468 4278190080 33692
0.10990677 -0.0049401997 0.00078314537 4278190080 34222
0.10599738 0.0011655882 -0.0033944165 4278190080 32150
0.094993599 -0.013619353 -0.0029993996 4278190080 28195
0.10968601 -0.0033417128 0.0002407484 4278190080 35406
0.10739344 0.00038275367 -0.0023906061 4278190080 33528
0.10800201 -0.00014473441 -0.0018765287 4278190080 29002
0.10578811 0.001420961 -0.0036456429 4278190080 32608
0.095243707 -0.012538725 -0.0071449894 4278190080 32426
0.10417955 0.0019273285 -0.0046067964 4278190080 31857
0.094442993 -0.011052577 -0.0075535756 4278190080 30170
0.094232336 -0.0033025788 -0.0075897789 4278190080 35467
0.094741486 -0.013360266 -0.0048209741 4278190080 33484
0.094447635 -0.011280783 -0.0075523909 4278190080 28162
0.096618757 5.8074089e-05 -0.0070937355 4278190080 31963
0.10219571 0.0021690235 -0.0057631023 4278190080 32469
0.09463881 -0.01356728 -0.0041306065 4278190080 29890
0.093758777 -0.0041805669 -0.007774089 4278190080 33885
0.093362778 -0.0073050228 -0.0079471972 4278190080 35277
0.10180963 0.0021671494 -0.0059888232 4278190080 34233
0.11021027 -0.0041620857 0.00078162475 4278190080 34602
0.095014758 -0.0129598 -0.0068970444 4278190080 29201
0.093475737 -0.0088930605 -0.0079455776 4278190080 32327
0.094776832 -0.012468001 -0.0073408759 4278190080 32380
0.094709903 -0.014025798 -0.0025325092 4278190080 30796
0.10509895 -0.0081970328 -0.0020407347 4278190080 30377
0.1050441 -0.0086982399 -0.0020366099 4278190080 30131
0.1045191 -0.0076390631 -0.0025399528 4278190080 27648
0.10516608 -0.0076964339 -0.0020450386 4278190080 35407
0.10439175 -0.0091374544 -0.0025275338 4278190080 33526
0.10408166 -0.0091054896 -0.0027726367 4278190080 34784
0.10574255 -0.008002175 -0.0015414953 4278190080 27836
0.1056155 -0.009263427 -0.0015319057 4278190080 28656
0.10425012 -0.0066099227 -0.0027928802 4278190080 31560
0.10308153 -0.0075107515 -0.0035067934 4278190080 29510
0.10488659 -0.010199443 -0.0020243551 4278190080 34017
0.10628858 -0.0085640084 -0.0010305113 4278190080 34340
0.10553959 -0.010018708 -0.0015261651 4278190080 28909
0.10267355 -0.0084642936 -0.0037360531 4278190080 34379
0.10455477 -0.01041402 -0.002270157 4278190080 31612
0.10546947 -0.010264941 -0.0015238384 4278190080 31123
0.1058887 -0.0067393845 -0.0015512866 4278190080 28155
0.10616984 -0.0070173927 -0.0012961773 4278190080 29477
0.10397421 -0.010347329 -0.0027620399 4278190080 30303
0.10332793 -0.010023581 -0.0032482124 4278190080 29372
0.10544425 -0.010516228 -0.0015219287 4278190080 32419
0.10618481 -0.0067625958 -0.0012979696 4278190080 33347
0.10365874 -0.010310943 -0.0030052678 4278190080 29720
0.10226774 -0.0076841959 -0.0039749104 4278190080 30409
0.10635824 -0.0098518636 -0.00076584768 4278190080 29853
0.10601342 -0.010325821 -0.0010174867 4278190080 27546
0.10231636 -0.0071954932 -0.0039798217 4278190080 31707
0.10353764 -0.005804284 -0.0032818317 4278190080 32222
0.1050153 -0.0056579341 -0.0023095482 4278190080 31851
0.10627443 -0.010354958 -0.00076230685 4278190080 34977
0.10393843 -0.0055827904 -0.0030434474 4278190080 32598
0.10296956 -0.01023113 -0.0034854603 4278190080 34280
0.10470659 -0.01118809 -0.0020151495 4278190080 35077
0.10671918 -0.0096336426 -0.00051085354 4278190080 35171
0.10657272 -0.010131474 -0.00050753169 4278190080 31409
0.10538583 -0.0056838188 -0.0020615959 4278190080 28862
0.10184783 -0.008873092 -0.0041982029 4278190080 31212
0.10586127 -0.011073711 -0.0010117744 4278190080 28827
0.10189006 -0.0069124727 -0.0042127818 4278190080 33368
0.10709376 -0.0091568539 -0.00025577412 4278190080 28575
0.10721034 -0.0083934767 -0.0002605452 4278190080 29386
0.10543126 -0.0054329201 -0.0020639284 4278190080 29363
0.10430942 -0.0051056496 -0.0028041466 4278190080 27917
0.10640319 -0.010881693 -0.000502543 4278190080 31663
0.10484494 -0.011709748 -0.0017609078 4278190080 29963
0.10345218 -0.011283756 -0.0029937509 4278190080 32754
0.10629638 -0.011124924 -0.00050090806 4278190080 31827
0.10396007 -0.0050830012 -0.0030472886 4278190080 31680
0.10664831 -0.0062854001 -0.0010473764 4278190080 31202
0.10186848 -0.0096120778 -0.0041940501 4278190080 35405
0.10283724 -0.010958982 -0.0034767415 4278190080 30022
0.10557187 -0.011801215 -0.0010054848 4278190080 30745
0.10149257 -0.0088361651 -0.0044301264 4278190080 30327
0.10183495 -0.009853703 -0.0041912142 4278190080 29887
0.10736505 -0.0091838762 3.9703423e-06 4278190080 33887
0.10424324 -0.011884565 -0.0022550509 4278190080 31896
0.10718399 -0.0099402377 8.1183698e-06 4278190080 31084
0.10524461 -0.012013255 -0.0012562261 4278190080 34740
0.10578892 -0.0052018301 -0.0018156006 4278190080 28945
0.10566588 -0.01206686 -0.00074936531 4278190080 33035
0.10281567 -0.011204095 -0.0034744814 4278190080 27876
0.10308052 -0.011485495 -0.0032318467 4278190080 30345
0.10633428 -0.011640897 -0.00024104175 4278190080 28461
0.10513281 -0.012251682 -0.0012538048 4278190080 30097
0.10444582 -0.012162132 -0.002004839 4278190080 29236
0.10184306 -0.0056805438 -0.0042192438 4278190080 30454
0.1057267 -0.012328408 -0.00049280474 4278190080 27980
0.10397808 -0.0045827571 -0.0030510433 4278190080 34842
0.10747217 -0.0071231895 -0.00026834299 4278190080 30504
0.10616447 -0.0052262405 -0.0015640286 4278190080 28168
0.10098092 -0.0070781983 -0.004665283 4278190080 35530
0.10305151 -0.011730089 -0.0032294428 4278190080 31763
0.10594395 -0.012356614 -0.00023715473 4278190080 29064
0.10099135 -0.0090268804 -0.0046527474 4278190080 30117
0.10467468 -0.012695159 -0.0014998438 4278190080 29455
0.10334054 -0.012016655 -0.0029861548 4278190080 27862
0.10277 -0.011693662 -0.0034698914 4278190080 33111
0.10587478 -0.0046970816 -0.0018199999 4278190080 32011
0.10775393 -0.009741432 0.00052927632 4278190080 34191
0.10402411 -0.012607411 -0.0022464837 4278190080 34723
0.10736959 -0.0060801147 -0.00053443178 4278190080 28127
0.10495266 -0.01323605 -0.0007397047 4278190080 30005
0.10554626 -0.0044229617 -0.0020723073 4278190080 30580
0.10049455 -0.0072775758 -0.0048860484 4278190080 28838
0.10797877 -0.007684452 0.00025739544 4278190080 30420
0.10214776 -0.011366555 -0.0039463462 4278190080 35146
0.10631602 -0.012660815 0.00027850686 4278190080 33853
0.10056742 -0.0092238914 -0.00487629 4278190080 28967
0.10784559 -0.010270119 0.0007937706 4278190080 32197
0.10407768 -0.013115312 -0.0019930683 4278190080 29159
0.10670538 -0.012456229 0.0005372584 4278190080 28766
0.10614496 -0.013147273 0.00053654367 4278190080 31776
0.1073024 -0.01176016 0.00079713017 4278190080 28354
0.10003763 -0.0079597207 -0.0051026009 4278190080 34802
0.10324912 -0.0037919153 -0.0035363832 4278190080 27720
0.10368067 -0.013308491 -0.0022359095 4278190080 32808
0.1077754 -0.0058495635 -0.00027607635 4278190080 29042
0.10771357 -0.011292375 0.0010587606 4278190080 29534
0.10271467 -0.012429039 -0.003463388 4278190080 27782
0.10670602 -0.0044900337 -0.0013169062 4278190080 32329
0.10096201 -0.0048857359 -0.004679088 4278190080 30815
0.10754967 -0.011790639 0.0010596935 4278190080 34111
0.10240865 -0.012387067 -0.0037015874 4278190080 31582
0.10761049 -0.0053198733 -0.00053951045 4278190080 31300
0.10717048 -0.012516771 0.0010590594 4278190080 33461
0.10103475 -0.011223646 -0.0046399301 4278190080 31094
0.10141357 -0.0041819997 -0.0044579878 4278190080 32622
0.10862044 -0.0077395542 0.00078632549 4278190080 28700
0.10285535 -0.0035228953 -0.0037746327 4278190080 28844
0.099547893 -0.0074318075 -0.0053233979 4278190080 30282
0.10010147 -0.010137843 -0.0050910451 4278190080 28309
0.099620812 -0.0088796578 -0.0053173006 4278190080 35430
0.10318736 -0.013486637 -0.0027238408 4278190080 28218
0.099502422 -0.0069477092 -0.0053244079 4278190080 33254
0.10189077 -0.003718755 -0.0042340313 4278190080 29617
0.09623611 -0.012892726 -0.0021098505 4278190080 33032
0.099601552 -0.009117608 -0.0053147734 4278190080 35248
0.099959746 -0.0055420962 -0.0051151016 4278190080 33744
0.10880984 -0.0082800426 0.0010546183 4278190080 30711
0.10295218 -0.013452468 -0.002967105 4278190080 29460
0.10180748 -0.012304643 -0.0041739182 4278190080 30450
0.10092328 -0.0041530384 -0.004682356 4278190080 35168
0.10825728 -0.0056224782 -1.5382198e-05 4278190080 34509
0.10720392 -0.013036797 0.0013215479 4278190080 29570
0.10010763 -0.010862492 -0.0050865016 4278190080 35023
0.10882545 -0.0098531554 0.0015902506 4278190080 33960
0.10804765 -0.0050878674 -0.00028051168 4278190080 33243
0.099113405 -0.0088249538 -0.0055318316 4278190080 32286
0.10385697 -0.0028232974 -0.0033102049 4278190080 30386
0.10821979 -0.01187273 0.0018529947 4278190080 28057
0.10876621 -0.01063198 0.0018566275 4278190080 32976
0.10626385 -0.0031843525 -0.0018348261 4278190080 28357
0.095531568 -0.013468818 -0.0014030212 4278190080 32547
0.10908719 -0.0098803882 0.0018586129 4278190080 33986
0.099968366 -0.0043376894 -0.0051235282 4278190080 34774
0.10390894 -0.0025751744 -0.0033132518 4278190080 34609
0.10096721 -0.0034254275 -0.0046890224 4278190080 31351
0.1085533 -0.011652558 0.0021206178 4278190080 28160
0.10597473 -0.0029159409 -0.002088632 4278190080 34845
0.1086854 -0.011407241 0.0021221745 4278190080 31154
0.099154048 -0.010263414 -0.0055243135 4278190080 27807
0.099977069 -0.0040972107 -0.0051255347 4278190080 35482
0.10928378 -0.0070074215 0.0010530218 4278190080 34627
0.10060727 -0.012380995 -0.0048570153 4278190080 32730
0.10933211 -0.0099057574 0.002127833 4278190080 34367
0.099964395 -0.0038554082 -0.0051265587 4278190080 29769
0.099162206 -0.010742443 -0.005521534 4278190080 31274
0.10603929 -0.0026632424 -0.0020912611 4278190080 31578
0.10744142 -0.0034973535 -0.0010698421 4278190080 31272
0.10854869 -0.012173935 0.0023857984 4278190080 31354
0.10963603 -0.0078269606 0.0015924529 4278190080 35299
0.099647455 -0.011764799 -0.0052993582 4278190080 32629
0.099147916 -0.011218511 -0.0055176243 4278190080 31807
0.10934851 -0.0059594158 0.00078324386 4278190080 34864
0.10969675 -0.0091521833 0.0021316309 4278190080 32838
0.098131083 -0.0082460623 -0.005958471 4278190080 34425
0.098668329 -0.010441839 -0.0057360814 4278190080 30073
0.09806253 -0.0075297165 -0.0059594153 4278190080 31339
0.10798752 -0.013401945 0.0023790335 4278190080 35441
0.098669067 -0.010679738 -0.0057345321 4278190080 34744
0.10690396 -0.0026989407 -0.0015881081 4278190080 30611
0.10043175 -0.013081799 -0.0048446325 4278190080 35289
0.10581593 -0.0021443465 -0.0023466153 4278190080 29554
0.098009452 -0.006343273 -0.0059643686 4278190080 28403
0.10994115 -0.0078530377 0.0018637136 4278190080 27733
0.098196805 -0.0099097472 -0.0059510358 4278190080 29389
0.10919688 -0.011992927 0.0029286132 4278190080 34636
0.10866833 -0.01297274 0.002918517 4278190080 30816
0.10592781 -0.0018933511 -0.0023502093 4278190080 32205
0.10943474 -0.0049115145 0.00051334774 4278190080 29896
0.10003975 -0.002653904 -0.005138061 4278190080 30413
0.095262028 -0.01343306 -0.0027782717 4278190080 32153
0.099502601 -0.013181945 -0.0050429818 4278190080 35104
0.10476521 -0.0016015316 -0.0030901243 4278190080 30899
0.097757436 -0.0098572103 -0.0061623808 4278190080 28028
0.10712101 -0.002191935 -0.0015936281 4278190080 31293
0.1001016 -0.0024154978 -0.0051425183 4278190080 28622
0.095275573 -0.013436679 -0.0030082222 4278190080 30285
0.10933479 -0.012272874 0.0031985396 4278190080 30176
0.097983018 -0.0046876483 -0.0059739528 4278190080 32595
0.10980994 -0.0051988754 0.00078369887 4278190080 31135
0.10180837 -0.0015060987 -0.0044912244 4278190080 33337
0.10491631 -0.0013538427 -0.0030954776 4278190080 32761
0.094822071 -0.015173537 -0.00024185046 4278190080 32878
0.0991662 -0.013100781 -0.00024640415 4278190080 30636
0.096460424 -0.013379996 -1.7662012e-05 4278190080 32289
0.097157538 -0.013026976 -0.00048531871 4278190080 29761
0.096944503 -0.012995071 -0.00071917695 4278190080 34986
0.095679052 -0.014402624 0.00067750609 4278190080 35084
0.095226154 -0.015695376 0.0015989061 4278190080 35049
0.095086232 -0.016352339 0.0022878996 4278190080 32782
0.096061766 -0.013091265 -0.0011792582 4278190080 34464
0.095479466 -0.013687563 -0.00094073953 4278190080 29398
0.094948173 -0.017461145 0.0036646198 4278190080 33246
0.10435808 -0.013397288 -0.00023362694 4278190080 28812
0.094899543 -0.017452437 0.0034336569 4278190080 35253
0.094922021 -0.015643766 0.00067671645 4278190080 34085
0.094851531 -0.016990853 0.0025139838 4278190080 35265
0.1006792 -0.012830582 0.0026685558 4278190080 34543
0.097606182 -0.013313744 0.00257591 4278190080 33446
0.098323703 -0.012956508 0.0021217407 4278190080 27668
0.097543918 -0.013305298 0.0023386995 4278190080 33135
0.097725712 -0.01310148 0.0018712948 4278190080 31081
0.096486449 -0.014529895 0.0027815728 4278190080 33005
0.096285656 -0.014957812 0.0030097747 4278190080 27793
0.096368887 -0.01451094 0.002545136 4278190080 35108
0.095948145 -0.015818452 0.0036972552 4278190080 29733
0.10022359 -0.012771585 0.001203743 4278190080 29177
0.098305114 -0.012959449 0.0011730707 4278190080 32689
0.096364602 -0.014280776 0.0020788044 4278190080 34812
0.099235743 -0.012864972 0.00094862992 4278190080 29217
0.095903851 -0.015353473 0.0027673582 4278190080 33636
0.096685037 -0.013640717 0.0013837018 4278190080 31600
0.0954815 -0.016649859 0.0039126645 4278190080 27667
0.0958746 -0.015119866 0.0023025332 4278190080 31451
0.095449127 -0.016872106 0.0041427682 4278190080 31781
0.095588416 -0.015985446 0.0029913406 4278190080 30011
0.095409289 -0.016636988 0.0036792364 4278190080 29429
0.098740384 -0.013030823 0.00046649665 4278190080 30682
0.095457368 -0.016190559 0.0029879538 4278190080 33556
0.095310889 -0.01684724 0.0036763404 4278190080 35046
0.095661223 -0.015313271 0.0020670211 4278190080 31279
0.095354587 -0.016400542 0.0029856167 4278190080 30895
0.095182851 -0.017051019 0.0036721192 4278190080 33709
0.09776777 -0.013118137 0.00022223982 4278190080 31398
0.095233269 -0.016606372 0.0029825852 4278190080 32382
0.095213816 -0.01614779 0.0022902349 4278190080 33661
0.095026121 -0.017249672 0.0034375137 4278190080 34759
0.098899767 -0.013268977 0.0045240754 4278190080 29958
0.099726848 -0.013159186 0.0043246523 4278190080 28042
0.097325213 -0.014429219 0.0046866764 4278190080 28923
0.096143804 -0.016999785 0.0060317628 4278190080 29842
0.096357755 -0.016348604 0.0055772741 4278190080 30421
0.098652802 -0.013231865 0.0042734174 4278190080 33258
0.095480181 -0.018472467 0.0069174021 4278190080 34420
0.095688276 -0.017600637 0.0060048667 4278190080 30687
0.098392934 -0.01319418 0.0037860728 4278190080 31012
0.0968493 -0.01481768 0.0041968669 4278190080 29527
0.095550299 -0.017802348 0.0059968466 4278190080 32210
0.098358423 -0.013190241 0.0035473469 4278190080 28543
0.095943287 -0.016504241 0.0048582209 4278190080 28625
0.099627636 -0.012909642 0.003357115 4278190080 31396
0.095843628 -0.016715793 0.0048540658 4278190080 27963
0.095030718 -0.020423958 0.0089577092 4278190080 29265
0.094966643 -0.019728906 0.0078018284 4278190080 29637
0.095351204 -0.021404602 0.011525388 4278190080 28513
0.095843665 -0.016486211 0.0046214731 4278190080 30284
0.09491574 -0.019718496 0.0075684502 4278190080 34678
0.096524298 -0.014996079 0.0037168637 4278190080 30156
0.095358834 -0.017766375 0.0052938592 4278190080 34159
0.094921403 -0.019040372 0.0064201117 4278190080 32741
0.096945092 -0.014139197 0.0032619745 4278190080 28368
0.094903298 -0.021301657 0.01009506 4278190080 34453
0.097221762 -0.013718542 0.0030354362 4278190080 34551
0.09502013 -0.018608609 0.0057371128 4278190080 32982
0.095681831 -0.022167509 0.013418182 4278190080 33011
0.10040713 -0.015150296 0.012606115 4278190080 30844
0.10137784 -0.015310453 0.013957139 4278190080 28255
0.099896803 -0.015542473 0.012783001 4278190080 29800
0.099762268 -0.01552151 0.01228353 4278190080 30474
0.099363662 -0.016401803 0.013436787 4278190080 34886
0.099664912 -0.015507136 0.011790002 4278190080 27848
0.099450015 -0.015707316 0.012004727 4278190080 29952
0.099499747 -0.016662832 0.014177815 4278190080 30175
0.099719167 -0.016701514 0.014691713 4278190080 31467
0.099408992 -0.015701381 0.011759675 4278190080 30395
0.098982863 -0.016809274 0.013147092 4278190080 31059
0.099251464 -0.015675928 0.011261151 4278190080 32332
0.098824725 -0.016781781 0.012648219 4278190080 31998
0.10038576 -0.014916315 0.01066406 4278190080 33454
0.098831251 -0.017018441 0.013127508 4278190080 28261
0.099201679 -0.017319577 0.014856103 4278190080 33538
0.098873116 -0.017262092 0.013611956 4278190080 29837
0.099764347 -0.017185386 0.015664661 4278190080 33806
0.098790936 -0.017247347 0.013361762 4278190080 29916
0.098667398 -0.016989445 0.012628605 4278190080 34143
0.099845938 -0.017199788 0.01591894 4278190080 28882
0.098702699 -0.017231409 0.013111128 4278190080 33090
0.099225849 -0.0175607 0.015340254 4278190080 30571
0.098538883 -0.016732611 0.011658906 4278190080 28385
0.10086155 -0.016906241 0.016814526 4278190080 32490
0.098374985 -0.017172599 0.012116167 4278190080 33516
0.098353863 -0.017402703 0.012589509 4278190080 34633
0.098550536 -0.016265403 0.010706336 4278190080 32385
0.099409632 -0.01783267 0.016091008 4278190080 34197
0.098303646 -0.016691703 0.010918151 4278190080 32119
0.098221622 -0.017847089 0.013048682 4278190080 27815
0.09808892 -0.017354157 0.011844003 4278190080 31326
0.098528847 -0.018138811 0.014519302 4278190080 33953
0.10165909 -0.016809141 0.017441714 4278190080 33758
0.098947622 -0.015392798 0.0095523354 4278190080 32911
0.10091913 -0.017156111 0.017556727 4278190080 28627
0.098000079 -0.018039534 0.012782909 4278190080 34925
0.098076954 -0.01828761 0.013504784 4278190080 33779
0.098152824 -0.016430387 0.010188624 4278190080 28367
0.098249674 -0.016213343 0.0099607613 4278190080 31757
0.10007659 -0.017718522 0.017409323 4278190080 30201
0.10146395 -0.017014408 0.017898336 4278190080 31277
0.098234676 -0.018551731 0.014477056 4278190080 29891
0.099030048 -0.015171587 0.0090814829 4278190080 28459
0.097940825 -0.01686094 0.010404576 4278190080 35309
0.10366121 -0.014975762 0.010778462 4278190080 28133
0.098053724 -0.016413011 0.0099411961 4278190080 34963
0.098567821 -0.018616453 0.015479627 4278190080 32237
0.097707614 -0.017750634 0.011562846 4278190080 27833
0.099979542 -0.017938845 0.017634621 4278190080 31237
0.097803257 -0.017069936 0.010390607 4278190080 31845
0.098197699 -0.018779239 0.01470979 4278190080 32920
0.097619608 -0.017734071 0.011316386 4278190080 32460
0.099532284 -0.014782605 0.0086472994 4278190080 27640
0.097875759 -0.018716063 0.013714915 4278190080 27959
0.10097574 -0.017406072 0.018299609 4278190080 28065
0.099766612 -0.01813652 0.017597195 4278190080 29417
0.097697616 -0.01868079 0.013217405 4278190080 34411
0.10008612 -0.017958865 0.017895659 4278190080 30800
0.097856402 -0.016612878 0.009685426 4278190080 32636
0.097493224 -0.017943272 0.011302432 4278190080 32451
0.09790951 -0.018956495 0.014193794 4278190080 28096
0.098165654 -0.019007636 0.014943128 4278190080 30712
0.098213658 -0.019016603 0.015187721 4278190080 35361
0.098300643 -0.019033989 0.015438923 4278190080 34266
0.098051786 -0.015945608 0.0089918897 4278190080 30964
0.097557947 -0.01725819 0.010129189 4278190080 29283
0.098196127 -0.015737019 0.0087676328 4278190080 30825
0.097381122 -0.018386781 0.011761537 4278190080 30323
0.097915836 -0.019191101 0.014668726 4278190080 30824
0.097780518 -0.019164329 0.01417575 4278190080 34650
0.099193573 -0.014727779 0.0081372829 4278190080 30581
0.097419947 -0.01885906 0.012709504 4278190080 31437
0.097606786 -0.019129153 0.013678473 4278190080 29821
0.10341545 -0.016635543 0.018250234 4278190080 33342
0.10061345 -0.017818088 0.018720357 4278190080 30622
0.10371427 -0.014742056 0.0095313946 4278190080 32673
0.099740513 -0.014582017 0.0079432875 4278190080 34901
0.10036692 -0.018011071 0.018674407 4278190080 34325
0.10136732 -0.014366611 0.0080793863 4278190080 29369
0.097641401 -0.019369299 0.01415617 4278190080 28761
0.097941048 -0.019429913 0.015146771 4278190080 31348
0.099059239 -0.014706329 0.0078865094 4278190080 27582
0.097472928 -0.017010506 0.0094129872 4278190080 31894
0.10112631 -0.017674776 0.019061653 4278190080 28300
0.10213495 -0.014245636 0.0081434827 4278190080 29356
0.09709502 -0.018794369 0.011728141 4278190080 30052
0.099451348 -0.014534875 0.0076786401 4278190080 28814
0.097383626 -0.016994316 0.0091689155 4278190080 28516
0.096956484 -0.018534878 0.011007409 4278190080 29716
0.097285703 -0.019529372 0.013399671 4278190080 33204
0.09819369 -0.015268886 0.0078169657 4278190080 33684
0.096931666 -0.018298712 0.010535324 4278190080 34539
0.096958242 -0.018998489 0.011712234 4278190080 33621
0.098115571 -0.019699393 0.016123345 4278190080 29856
0.098503746 -0.019544367 0.016901262 4278190080 28355
0.10249479 -0.01720209 0.019323746 4278190080 29743
0.097344495 -0.016754782 0.0086939009 4278190080 34665
0.09819147 -0.019714937 0.016373247 4278190080 27597
0.097442381 -0.016540373 0.008466715 4278190080 31454
0.098024003 -0.015240153 0.0075659989 4278190080 30464
0.096730724 -0.018721122 0.01074851 4278190080 31250
0.096792974 -0.018272158 0.010052438 4278190080 35032
0.096708119 -0.018485913 0.010277841 4278190080 34312
0.096794426 -0.019427894 0.011927852 4278190080 31381
0.097077943 -0.019949567 0.013606873 4278190080 35163
0.099774145 -0.018851178 0.019047897 4278190080 33038
0.096706644 -0.018255284 0.0098096756 4278190080 29443
0.10052144 -0.018278783 0.019676184 4278190080 28972
0.096645817 -0.018473968 0.010037716 4278190080 30594
0.096842781 -0.01990002 0.012871524 4278190080 33602
0.096689813 -0.019637557 0.011915769 4278190080 31401
0.09992405 -0.013897481 0.0067491657 4278190080 31986
0.097546779 -0.020280618 0.015559869 4278190080 32165
0.099815764 -0.018858526 0.019297035 4278190080 30545
0.096664719 -0.018016208 0.009337374 4278190080 29187
0.096918903 -0.020146873 0.013585029 4278190080 32462
0.098957509 -0.019637492 0.018176123 4278190080 29501
0.09696231 -0.01714921 0.0084265433 4278190080 34255
0.099369258 -0.014047794 0.0067099738 4278190080 35444
0.096565694 -0.018458212 0.0097959787 4278190080 30521
0.097734079 -0.020321023 0.016062599 4278190080 33307
0.097621091 -0.015640577 0.0073000328 4278190080 33820
0.097864665 -0.015214683 0.0070806541 4278190080 34816
0.097384065 -0.016065342 0.0075187595 4278190080 32961
0.098475687 -0.02000878 0.017612141 4278190080 29468
0.09906134 -0.019658996 0.018434944 4278190080 34149
0.10037475 -0.018489501 0.019890307 4278190080 33816
0.10016988 -0.01868882 0.019849872 4278190080 31145
0.097577259 -0.020520091 0.016037274 4278190080 35029
0.09891393 -0.019864941 0.01840803 4278190080 29183
0.1051288 -0.016692286 0.018815419 4278190080 27840
0.098082647 -0.020395804 0.017068852 4278190080 32765
0.098681204 -0.020052331 0.018126527 4278190080 29282
0.1005025 -0.018514385 0.020159045 4278190080 32971
0.10002875 -0.018900594 0.019822478 4278190080 29288
0.096379794 -0.018652108 0.009544977 4278190080 30767
0.097372778 -0.015831351 0.0070466218 4278190080 34494
0.099652551 -0.019303231 0.019507917 4278190080 30439
0.096929178 -0.016913176 0.0077206353 4278190080 35247
0.096377343 -0.018191155 0.0088444119 4278190080 29036
0.097940885 -0.020599239 0.017044727 4278190080 34477
0.096283711 -0.018632693 0.0093026357 4278190080 32072
0.10062975 -0.018539162 0.020428304 4278190080 27635
0.097652473 -0.020770242 0.016522849 4278190080 35461
0.096766345 -0.017114304 0.007708163 4278190080 35478
0.09699063 -0.020856509 0.015003921 4278190080 29728
0.096187547 -0.019761378 0.010924093 4278190080 31176
0.09709461 -0.020879868 0.015254939 4278190080 32481
0.096168987 -0.019068668 0.0097576799 4278190080 31997
0.096597992 -0.020769957 0.013775411 4278190080 27599
0.09612225 -0.019288618 0.0099859526 4278190080 28174
0.096881136 -0.016672999 0.0072477111 4278190080 28813
0.10024934 -0.018944247 0.020351591 4278190080 30525
0.1075326 -0.016113108 0.014840554 4278190080 28391
0.098362617 -0.020691875 0.018070338 4278190080 28738
0.095989436 -0.020177443 0.011134797 4278190080 31539
0.099327073 -0.019950042 0.019686254 4278190080 27863
0.096763968 -0.021269066 0.014970306 4278190080 28777
0.09589088 -0.019469339 0.0097306566 4278190080 35523
0.097437486 -0.015144419 0.0061071874 4278190080 31143
0.096226722 -0.017932896 0.0078998767 4278190080 30300
0.097508416 -0.021205053 0.016735744 4278190080 33512
0.098195076 -0.014098533 0.0056779422 4278190080 27933
0.095802516 -0.019678881 0.00995366 4278190080 35505
0.097136073 -0.021353887 0.01596774 4278190080 31887
0.095818818 -0.019454416 0.0094917947 4278190080 32424
0.09837579 -0.020930713 0.018311722 4278190080 30317
0.09679579 -0.021508731 0.015210425 4278190080 30172
0.098659977 -0.020756911 0.018841213 4278190080 31860
0.097357102 -0.015131542 0.0058668726 4278190080 28166
0.097818822 -0.021275459 0.017499171 4278190080 29918
0.10116874 -0.018400434 0.021516621 4278190080 28896
0.095999807 -0.021325812 0.012995873 4278190080 29634
0.096410684 -0.017048893 0.0067476192 4278190080 29061
0.096474178 -0.021665145 0.01469375 4278190080 30584
0.096558958 -0.021684773 0.014940167 4278190080 28900
0.098024495 -0.021322075 0.018010406 4278190080 32925
0.097298712 -0.021623764 0.0167013 4278190080 32771
0.097716533 -0.021486452 0.017481664 4278190080 34739
0.097594067 -0.014470822 0.0054072933 4278190080 34407
0.098200902 -0.013865663 0.0052031125 4278190080 28192
0.09552601 -0.020304982 0.010157965 4278190080 30660
0.1070873 -0.016788784 0.018659171 4278190080 31340
0.10012259 -0.019637499 0.02105454 4278190080 28649
0.099177219 -0.020632574 0.01989937 4278190080 33040
0.096258402 -0.021845082 0.014428715 4278190080 29771
0.095804371 -0.021510126 0.012738511 4278190080 29727
0.09555532 -0.020995963 0.011317983 4278190080 32927
0.096958682 -0.015529479 0.0056096627 4278190080 32373
0.09732461 -0.021863338 0.01694221 4278190080 31688
0.099800721 -0.020050002 0.020746801 4278190080 27753
0.10069919 -0.019031903 0.021661274 4278190080 33594
0.095907614 -0.021762783 0.013448407 4278190080 33667
0.09545166 -0.020972131 0.011074821 4278190080 33899
0.096442357 -0.016594527 0.0060493164 4278190080 31839
0.10003669 -0.019859983 0.021037398 4278190080 33642
0.10618766 -0.014135288 0.0074603166 4278190080 35095
0.096985169 -0.015301974 0.0053759632 4278190080 34660
0.099100843 -0.020853916 0.019885018 4278190080 29709
0.098671116 -0.013469675 0.0047517889 4278190080 28135
0.09565793 -0.018508222 0.0073927301 4278190080 31838
0.096006349 -0.017432321 0.0064883078 4278190080 35021
0.096755095 -0.022194291 0.015908442 4278190080 33975
0.099037692 -0.021077998 0.019873405 4278190080 29257
