# .PCD v0.7 - Point Cloud Data file format
VERSION 0.7
FIELDS x y z rgb
SIZE 4 4 4 4
TYPE F F F U
COUNT 1 1 1 1
WIDTH 258
HEIGHT 1
VIEWPOINT 0 0 0 1 0 0 0
POINTS 258
DATA ascii
0.050318856 -0.19673857 0.012753759 4278190080
0.048913684 -0.19723916 0.012847458 4278190080
0.047440283 -0.19793314 0.012953885 4278190080
0.053194147 -0.1957068 0.012561668 4278190080
0.050348952 -0.19723073 0.013604705 4278190080
0.055932447 -0.19188575 0.0082401494 4278190080
0.055932466 -0.19188575 0.0082401754 4278190080
0.047403637 -0.1972564 0.011881558 4278190080
0.053136915 -0.19456196 0.010845977 4278190080
0.055873603 -0.19066934 0.0064576603 4278190080
0.055873618 -0.19066933 0.0064576576 4278190080
0.053781681 -0.18920894 0.0036265301 4278190080
0.053095076 -0.19376093 0.00960851 4278190080
0.053095076 -0.19376099 0.0096085314 4278190080
0.050208993 -0.19457065 0.0094740847 4278190080
0.04733704 -0.1961942 0.010010943 4278190080
0.047337037 -0.19619425 0.010010963 4278190080
0.050219458 -0.19480911 0.0098014111 4278190080
0.050219458 -0.19480917 0.0098014325 4278190080
0.053001113 -0.19156231 0.0066428967 4278190080
0.041473921 -0.19697779 0.0074748611 4278190080
0.053015165 -0.19188406 0.0070831021 4278190080
0.050756704 -0.19456741 0.0097631523 4278190080
0.050756838 -0.19456741 0.0097631654 4278190080
0.044447582 -0.19729255 0.009941767 4278190080
0.044841349 -0.19728836 0.01018728 4278190080
0.044841453 -0.19728838 0.010187293 4278190080
0.041494243 -0.19732605 0.0080568651 4278190080
0.044456217 -0.19749925 0.010216525 4278190080
0.044456217 -0.19749931 0.010216546 4278190080
0.040688857 -0.19733576 0.0075309994 4278190080
0.050073501 -0.19190617 0.005433633 4278190080
0.047240302 -0.19413307 0.007052117 4278190080
0.046208896 -0.1946059 0.0071259895 4278190080
0.044357199 -0.19555122 0.0072632805 4278190080
0.047262888 -0.1945971 0.0077349478 4278190080
0.05011972 -0.19289662 0.0068499222 4278190080
0.052883372 -0.18921597 0.0031174002 4278190080
0.052901924 -0.18962264 0.0036900435 4278190080
0.052805912 -0.18752526 0.00072940625 4278190080
0.05221913 -0.19188705 0.0066972738 4278190080
0.048790462 -0.18923743 0.0010107895 4278190080
0.047136772 -0.19192345 0.003883888 4278190080
0.044259518 -0.19353665 0.0043067308 4278190080
0.047143847 -0.19205765 0.004092562 4278190080
0.047424287 -0.19191997 0.0040720338 4278190080
0.049927395 -0.18871707 0.00092939846 4278190080
0.04995095 -0.18922906 0.0016545774 4278190080
0.041357968 -0.19466236 0.004000674 4278190080
0.042025134 -0.19465259 0.0044711968 4278190080
0.041375026 -0.19502336 0.0045212787 4278190080
0.049773913 -0.18654628 -0.0020319447 4278190080
0.049834594 -0.18654589 -0.0019993372 4278190080
0.049833395 -0.18652 -0.002036158 4278190080
0.050023735 -0.1907981 0.0038892273 4278190080
0.044313889 -0.19462635 0.0059376964 4278190080
0.043073952 -0.1919629 0.0014253007 4278190080
0.041278277 -0.19296263 0.0015624519 4278190080
0.044163652 -0.19143219 0.0013457434 4278190080
0.046877131 -0.18658344 -0.0039679278 4278190080
0.04694809 -0.18804808 -0.0018195678 4278190080
0.04685194 -0.18595757 -0.0047798688 4278190080
0.047003292 -0.18925703 -0.00011598039 4278190080
0.044187266 -0.19195321 0.0020763827 4278190080
0.038392887 -0.19449493 0.0017792508 4278190080
0.047044057 -0.19014752 0.0011411691 4278190080
0.038035266 -0.19470365 0.0018070312 4278190080
0.038402993 -0.19469748 0.0020823991 4278190080
0.03542367 -0.19475636 -0.00032726023 4278190080
0.035423689 -0.19475636 -0.00032720435 4278190080
0.046397995 -0.18389787 -0.0077209789 4278190080
0.043915436 -0.18662511 -0.0060215816 4278190080
0.041175783 -0.19118647 -0.0013823267 4278190080
0.043961782 -0.18772534 -0.0045514451 4278190080
0.043870717 -0.18538308 -0.0075241672 4278190080
0.044042818 -0.18929748 -0.0021449076 4278190080
0.044061005 -0.1896636 -0.0015986599 4278190080
0.041223429 -0.19199696 -2.0521693e-05 4278190080
0.043824136 -0.18391748 -0.0091694891 4278190080
0.044683278 -0.18928586 -0.0016477024 4278190080
0.045832794 -0.18659845 -0.0046984721 4278190080
0.038190838 -0.19079705 -0.0041174963 4278190080
0.035942294 -0.19208416 -0.0039440496 4278190080
0.03530255 -0.19247271 -0.0038936194 4278190080
0.035302531 -0.19247277 -0.0038936166 4278190080
0.040980101 -0.18717325 -0.0072946372 4278190080
0.041070268 -0.18934542 -0.0043300977 4278190080
0.041074648 -0.18934309 -0.0043304274 4278190080
0.041074753 -0.18934536 -0.0043271678 4278190080
0.041841257 -0.18664949 -0.0073625557 4278190080
0.038254373 -0.19204584 -0.0022231573 4278190080
0.03241479 -0.19412223 -0.0036710342 4278190080
0.038289838 -0.19274621 -0.0011641728 4278190080
0.039580226 -0.19202515 -0.0012628594 4278190080
0.032446906 -0.19481277 -0.0026858589 4278190080
0.031310469 -0.1948341 -0.0035819942 4278190080
0.041796289 -0.18393514 -0.01035556 4278190080
0.041796394 -0.18393514 -0.010355547 4278190080
0.035402942 -0.19435282 -0.00094370544 4278190080
0.035402928 -0.19435287 -0.00094370358 4278190080
0.03520621 -0.1903916 -0.0068534501 4278190080
0.035206195 -0.19039163 -0.0068534482 4278190080
0.037104458 -0.18939702 -0.0069954237 4278190080
0.032318454 -0.19214141 -0.0065840939 4278190080
0.038092103 -0.18883459 -0.007071468 4278190080
0.038116179 -0.189384 -0.006318097 4278190080
0.040895164 -0.18452738 -0.010282335 4278190080
0.040895168 -0.18452731 -0.010282357 4278190080
0.035285369 -0.19209462 -0.0044244202 4278190080
0.035285387 -0.19209462 -0.0044243475 4278190080
0.040870797 -0.18395098 -0.011054292 4278190080
0.04096131 -0.18665937 -0.0079223439 4278190080
0.029424544 -0.1939946 -0.0063932734 4278190080
0.033391178 -0.18945433 -0.0096729705 4278190080
0.033391282 -0.18945433 -0.0096729575 4278190080
0.035106316 -0.18848689 -0.0098045785 4278190080
0.035106298 -0.18848693 -0.0098045766 4278190080
0.035106312 -0.18848695 -0.0098045571 4278190080
0.035106298 -0.18848699 -0.0098045552 4278190080
0.029323386 -0.19215249 -0.0093413116 4278190080
0.029323384 -0.19215254 -0.0093412902 4278190080
0.029222444 -0.19221471 -0.0093333116 4278190080
0.029222533 -0.19221471 -0.0093332967 4278190080
0.029326193 -0.19221294 -0.0092550972 4278190080
0.035152666 -0.18942744 -0.0084084691 4278190080
0.035152689 -0.18942742 -0.0084084021 4278190080
0.037867416 -0.18398759 -0.013022657 4278190080
0.037571982 -0.18669425 -0.010013213 4278190080
0.037572071 -0.18669425 -0.010013198 4278190080
0.037915047 -0.18398684 -0.012988202 4278190080
0.037913967 -0.18395221 -0.013026671 4278190080
0.038003132 -0.18638867 -0.010049315 4278190080
0.038003132 -0.18638873 -0.010049294 4278190080
0.038014386 -0.18668662 -0.0096780211 4278190080
0.032317005 -0.19211283 -0.006627324 4278190080
0.032268457 -0.19214235 -0.0066234963 4278190080
0.03203699 -0.18542382 -0.015528814 4278190080
0.032075781 -0.18678483 -0.014093205 4278190080
0.029209649 -0.18952996 -0.01291287 4278190080
0.029841607 -0.18951532 -0.012358411 4278190080
0.032124862 -0.18792443 -0.012548268 4278190080
0.029229436 -0.18995301 -0.012306971 4278190080
0.034074191 -0.18404308 -0.015696337 4278190080
0.033926383 -0.18675308 -0.012694011 4278190080
0.034943238 -0.18403839 -0.015246145 4278190080
0.034943253 -0.18403839 -0.015246093 4278190080
0.0349296 -0.18353319 -0.015763301 4278190080
0.034929615 -0.18353313 -0.015763305 4278190080
0.035016626 -0.18607554 -0.012780696 4278190080
0.035016645 -0.18607549 -0.012780698 4278190080
0.026338683 -0.1917502 -0.012077095 4278190080
0.032188848 -0.1894712 -0.010505662 4278190080
0.035040345 -0.18674034 -0.011980955 4278190080
0.035040364 -0.18674034 -0.011980906 4278190080
0.034421887 -0.18133761 -0.018708326 4278190080
0.034421992 -0.18133759 -0.01870833 4278190080
0.023345934 -0.19174652 -0.014793221 4278190080
0.034851044 -0.18133166 -0.018412359 4278190080
0.034851026 -0.18133166 -0.018412415 4278190080
0.034851041 -0.18133165 -0.018412441 4278190080
0.034851022 -0.18133165 -0.018412493 4278190080
0.025625449 -0.19227463 -0.012016459 4278190080
0.026360815 -0.19225819 -0.011383166 4278190080
0.034840889 -0.18107425 -0.018741783 4278190080
0.034840904 -0.1810742 -0.018741786 4278190080
0.023374265 -0.19232413 -0.013938821 4278190080
0.032218106 -0.19015871 -0.0095808916 4278190080
0.032218106 -0.19015877 -0.0095808702 4278190080
0.027010344 -0.1868792 -0.018073784 4278190080
0.029045224 -0.18537146 -0.018247338 4278190080
0.026147671 -0.18750563 -0.018000826 4278190080
0.030529901 -0.1841042 -0.01838205 4278190080
0.031888552 -0.1813741 -0.020482454 4278190080
0.031888556 -0.1813741 -0.02048238 4278190080
0.029108595 -0.18683186 -0.016257804 4278190080
0.031947684 -0.18299435 -0.018505841 4278190080
0.031859748 -0.18049724 -0.02148621 4278190080
0.023248225 -0.18965043 -0.017788354 4278190080
0.02328337 -0.18964952 -0.01775549 4278190080
0.023249462 -0.18967214 -0.017752718 4278190080
0.031991739 -0.18407011 -0.017094463 4278190080
0.020553727 -0.18972901 -0.020480603 4278190080
0.029139725 -0.18754359 -0.015283015 4278190080
0.020241627 -0.18973596 -0.020749182 4278190080
0.03017249 -0.18680947 -0.015369592 4278190080
0.020251382 -0.18993327 -0.020455772 4278190080
0.031797007 -0.17866671 -0.023635354 4278190080
0.026244508 -0.18956192 -0.015042222 4278190080
0.026227275 -0.18957487 -0.015040743 4278190080
0.026245125 -0.18957438 -0.015023698 4278190080
0.022977248 -0.18259655 -0.0266733 4278190080
0.024261001 -0.18153161 -0.026788298 4278190080
0.024261078 -0.18153159 -0.026788298 4278190080
0.023030652 -0.18426934 -0.024790518 4278190080
0.022949003 -0.18155231 -0.027743515 4278190080
0.022948999 -0.18155229 -0.027743582 4278190080
0.025920615 -0.18150096 -0.025489531 4278190080
0.025920613 -0.18150094 -0.02548961 4278190080
0.02422932 -0.1842442 -0.023791593 4278190080
0.0259654 -0.18282798 -0.023945943 4278190080
0.025880625 -0.18017402 -0.02693405 4278190080
0.020832945 -0.18430865 -0.026484456 4278190080
0.023061382 -0.18528226 -0.02368363 4278190080
0.020056728 -0.18432297 -0.027091432 4278190080
0.027630758 -0.18146655 -0.024094146 4278190080
0.027630849 -0.18146653 -0.024094149 4278190080
0.026014898 -0.18420565 -0.022281397 4278190080
0.020074492 -0.18498902 -0.026414044 4278190080
0.022892825 -0.17992519 -0.029662279 4278190080
0.02289282 -0.17992525 -0.029662352 4278190080
0.02032588 -0.1815839 -0.029455114 4278190080
0.020325791 -0.1815839 -0.02945511 4278190080
0.020325951 -0.1815839 -0.029455192 4278190080
0.020325862 -0.18158391 -0.029455189 4278190080
0.025833696 -0.17878903 -0.028548971 4278190080
0.019998983 -0.18187603 -0.02942482 4278190080
0.019998979 -0.18187611 -0.029424891 4278190080
0.019988861 -0.18159246 -0.029766075 4278190080
0.019988857 -0.18159245 -0.029766168 4278190080
0.024389511 -0.17882116 -0.029789694 4278190080
0.024389582 -0.17882116 -0.029789768 4278190080
0.027621964 -0.17875302 -0.027088892 4278190080
0.028869215 -0.18038374 -0.024207758 4278190080
0.020847287 -0.1870223 -0.023489978 4278190080
0.02890454 -0.18143757 -0.022986926 4278190080
0.028904542 -0.18143758 -0.022986848 4278190080
0.026052797 -0.18535203 -0.020964239 4278190080
0.020141199 -0.18703726 -0.024081476 4278190080
0.023121387 -0.18697752 -0.021654015 4278190080
0.027475065 -0.18417636 -0.021091435 4278190080
0.028813856 -0.17872933 -0.026122347 4278190080
0.020160846 -0.18756469 -0.0234298 4278190080
0.024106454 -0.18695475 -0.020790471 4278190080
0.022846524 -0.17885558 -0.031117171 4278190080
0.025793243 -0.17764921 -0.029915789 4278190080
0.025793239 -0.17764929 -0.029915862 4278190080
0.028955888 -0.18294372 -0.021224283 4278190080
0.028783828 -0.17776017 -0.027194368 4278190080
0.023150286 -0.18773159 -0.020705614 4278190080
0.017103916 -0.18435596 -0.028965868 4278190080
0.017098427 -0.1841592 -0.029170953 4278190080
0.017098423 -0.18415928 -0.029171024 4278190080
0.017442387 -0.18708655 -0.026182432 4278190080
0.016853828 -0.18435995 -0.029149145 4278190080
0.016853891 -0.18435997 -0.029149227 4278190080
0.017167829 -0.18709034 -0.026371118 4278190080
0.029001322 -0.18413983 -0.019728255 4278190080
0.017173998 -0.1872692 -0.026160326 4278190080
0.021156056 -0.17888929 -0.032490514 4278190080
0.019901397 -0.1798566 -0.032381687 4278190080
0.03090415 -0.17868599 -0.024390504 4278190080
0.030802634 -0.18139704 -0.021390416 4278190080
0.03080274 -0.18139702 -0.021390419 4278190080
0.026121676 -0.18689816 -0.018820878 4278190080
0.022803558 -0.17749356 -0.032639489 4278190080
0.02778906 -0.17604345 -0.030092152 4278190080
0.027789131 -0.17604347 -0.030092226 4278190080
0.028722804 -0.17602147 -0.029265271 4278190080
