# .PCD v0.7 - Point Cloud Data file format
VERSION 0.7
FIELDS x y z rgba label
SIZE 4 4 4 4 4
TYPE F F F U U
COUNT 1 1 1 1 1
WIDTH 159
HEIGHT 1
VIEWPOINT 0 0 0 1 0 0 0
POINTS 159
DATA ascii
5.7220458e-08 0.00884772 0.071428552 4278190080 13973
3.8146972e-08 0.0088477861 0.071428552 4278190080 10122
-0.0026660715 0.0085714664 0.080000058 4278190080 13671
-0.002666103 0.0085714664 0.079999976 4278190080 13967
0.002857181 0.0085714664 0.069183715 4278190080 10110
5.7220458e-08 0.0046929894 0.082857199 4278190080 13666
3.8146972e-08 0.004693049 0.082857199 4278190080 8954
0.002857181 0.0021745809 0.08571434 4278190080 8937
-0.0010441331 0.0057143238 0.082857199 4278190080 13665
-0.00063217845 0.0085714664 0.074285701 4278190080 13962
0.0015786894 0.002857181 0.08571434 4278190080 8936
-0.0016976425 0.0085714664 0.077142835 4278190080 13965
3.8146972e-08 0.0085714664 0.072058447 4278190080 10111
5.7220458e-08 0.0085714664 0.07205829 4278190080 13964
0.00057387847 0.0085714664 0.071428552 4278190080 10108
5.7220458e-08 0.0036238146 0.08571434 4278190080 13669
3.8146972e-08 0.0036238732 0.08571434 4278190080 8957
0.002857181 0.0033166851 0.082857199 4278190080 8956
5.7220458e-08 0.0066403123 0.077142835 4278190080 13966
3.8146972e-08 0.006640383 0.077142835 4278190080 10114
0.002857181 0.0076441113 0.071428552 4278190080 10109
0.00014505937 0.0057143238 0.080000058 4278190080 8952
0.0001450087 0.0057143238 0.079999976 4278190080 10106
5.7220458e-08 0.0057817046 0.079999976 4278190080 13968
3.8146972e-08 0.0057817763 0.079999976 4278190080 10115
5.7220458e-08 0.0057817274 0.080000058 4278190080 13670
3.8146972e-08 0.0057818005 0.080000058 4278190080 8958
5.7220458e-08 0.0057143238 0.080162741 4278190080 13667
3.8146972e-08 0.0057143238 0.08016292 4278190080 8953
0.002857181 0.002857181 0.083953202 4278190080 8938
5.7220458e-08 0.0077218562 0.074285701 4278190080 13963
3.8146972e-08 0.0077219172 0.074285701 4278190080 10112
0.0057143238 0.0085714664 0.069364473 4278190080 10134
0.0085714664 0.0011221839 0.08571434 4278190080 8972
0.0057143238 0.0015844016 0.08571434 4278190080 8962
0.002857181 0.0053388458 0.077142835 4278190080 10104
0.002857181 0.0057143238 0.076137826 4278190080 10105
0.0057143238 0.0077438066 0.071428552 4278190080 10133
0.002857181 0.0064939526 0.074285701 4278190080 10113
0.0057143238 0.0030486267 0.082857199 4278190080 8967
0.002857181 0.0045047789 0.079999976 4278190080 10107
0.002857181 0.004504804 0.080000058 4278190080 8955
0.0057143238 0.002857181 0.083272032 4278190080 8963
0.0019989042 0.0057143238 0.077142835 4278190080 10103
0.0085714664 0.0085714664 0.069539011 4278190080 10145
0.0085714664 0.0057143238 0.075793035 4278190080 10142
0.0085714664 0.006453481 0.074285701 4278190080 10146
0.0085714664 0.003865591 0.079999976 4278190080 10143
0.0085714664 0.0038656241 0.080000058 4278190080 8974
0.0057143238 0.0050482918 0.077142835 4278190080 10130
0.0057143238 0.0057143238 0.075676188 4278190080 10131
0.011428609 0.002857181 0.082398556 4278190080 8976
0.014285753 0.0071717808 0.071428552 4278190080 10173
0.011428609 0.007785745 0.071428552 4278190080 10155
0.011428609 0.0025096599 0.082857199 4278190080 8975
0.0057143238 0.0064587328 0.074285701 4278190080 10135
0.0085714664 0.002857181 0.082536519 4278190080 8971
0.0057143238 0.004245596 0.079999976 4278190080 10132
0.0057143238 0.0042456184 0.080000058 4278190080 8968
0.0085714664 0.0077945227 0.071428552 4278190080 10144
0.0085714664 0.0026962033 0.082857199 4278190080 8970
0.0074261408 0.002857181 0.082857199 4278190080 8969
0.011428609 0.0053969827 0.077142835 4278190080 10152
0.011428609 0.0057143238 0.076453291 4278190080 10153
0.012959385 -0.0028570858 0.082857199 4278190080 8631
0.011428609 0.004157396 0.079999976 4278190080 10154
0.011428609 0.0041574328 0.080000058 4278190080 8979
0.012533342 3.8146972e-08 0.082857199 4278190080 8981
0.01253333 5.7220458e-08 0.082857199 4278190080 8635
0.011428609 0.0066080317 0.074285701 4278190080 10157
0.013531697 -0.0057142288 0.082857199 4278190080 8619
0.0085714664 0.005073729 0.077142835 4278190080 10141
0.017142896 0.0054400498 0.071428552 4278190080 10186
0.014568687 0.0057143238 0.074285701 4278190080 10188
0.016924258 0.0057143238 0.071428552 4278190080 10185
0.014285753 0.0057143238 0.07463365 4278190080 10169
0.017142896 0.0057143238 0.071118675 4278190080 10187
0.014285753 0.0058757975 0.074285701 4278190080 10174
0.01264938 0.002857181 0.079999976 4278190080 10168
0.012649415 0.002857181 0.080000058 4278190080 8980
0.020000039 -0.0057142288 0.075411178 4278190080 10098
0.020000018 -0.0057142288 0.07541123 4278190080 9363
0.020000039 -0.0028570858 0.074735105 4278190080 10099
0.020000018 -0.0028570858 0.07473515 4278190080 9366
0.017142896 -0.0028570858 0.076331712 4278190080 10087
0.017142896 -0.0048658387 0.077142835 4278190080 10086
0.020665411 -0.0028570858 0.074285701 4278190080 9364
0.017590264 -0.0057142288 0.077142835 4278190080 10097
0.020000039 -0.0018447317 0.074285701 4278190080 10101
0.020000018 -0.0018446187 0.074285701 4278190080 9371
0.017142896 -0.0057142288 0.077408999 4278190080 10084
0.01599423 -0.0028570858 0.077142835 4278190080 10085
0.022046302 -0.0057142288 0.074285701 4278190080 9360
0.018481053 3.8146972e-08 0.074285701 4278190080 10200
0.018480999 5.7220458e-08 0.074285701 4278190080 10100
0.017142896 3.8146972e-08 0.075130858 4278190080 10183
0.017142896 5.7220458e-08 0.07513082 4278190080 10089
0.020000039 -0.0085713714 0.076331563 4278190080 10096
0.020000018 -0.0085713714 0.076331608 4278190080 9358
0.020000018 3.8146972e-08 0.073367618 4278190080 9475
0.020000039 3.8146972e-08 0.073367551 4278190080 10199
0.020000018 5.7220458e-08 0.073367581 4278190080 9370
0.020000039 5.7220458e-08 0.073367514 4278190080 10102
0.022857163 -0.0057142288 0.073837772 4278190080 9362
0.018869521 -0.0085713714 0.077142835 4278190080 10094
0.022857163 -0.0028570858 0.072363324 4278190080 9365
0.022857163 -0.006881922 0.074285701 4278190080 9361
0.014285753 -0.0028570858 0.078014448 4278190080 10076
0.017142896 -0.0085713714 0.078159548 4278190080 10083
0.014285753 -0.0057142288 0.078653477 4278190080 10074
0.022857163 -0.00142163 0.071428552 4278190080 9368
0.017142896 0.001785355 0.074285701 4278190080 10181
0.014672814 3.8146972e-08 0.077142835 4278190080 10184
0.014672784 5.7220458e-08 0.077142835 4278190080 10088
0.022857163 -0.0085713714 0.074927814 4278190080 9359
0.022023119 5.7220458e-08 0.071428552 4278190080 9367
0.022023151 3.8146972e-08 0.071428552 4278190080 9472
0.014285753 5.7220458e-08 0.07744173 4278190080 10078
0.014285753 3.8146972e-08 0.077441752 4278190080 10166
0.024043668 -0.0028570858 0.071428552 4278190080 9381
0.020000018 -0.01043131 0.077142835 4278190080 9357
0.020000039 -0.010431397 0.077142835 4278190080 10095
0.014285753 0.00094926794 0.077142835 4278190080 10164
0.013911406 -0.0057142288 0.079999976 4278190080 10072
0.013911422 -0.0057142288 0.080000058 4278190080 8618
0.017142896 0.002857181 0.073790014 4278190080 10182
0.016576875 0.002857181 0.074285701 4278190080 10180
0.022857163 3.8146972e-08 0.070355907 4278190080 9471
0.022857163 5.7220458e-08 0.070355862 4278190080 9369
0.014285753 -0.0077246637 0.079999976 4278190080 10073
0.014285753 -0.0077245794 0.080000058 4278190080 8621
0.013702022 -0.0028570858 0.079999976 4278190080 10075
0.013702042 -0.0028570858 0.080000058 4278190080 8632
0.014968608 -0.0085713714 0.079999976 4278190080 10082
0.014968669 -0.0085713714 0.080000058 4278190080 8667
0.024535466 -0.0085713714 0.074285701 4278190080 9377
0.020000039 0.0027837539 0.071428552 4278190080 10197
0.020000018 0.0027838587 0.071428552 4278190080 9474
0.020000039 -0.011428514 0.077513136 4278190080 10093
0.020000018 -0.011428514 0.077513166 4278190080 9356
0.019938238 0.002857181 0.071428552 4278190080 10196
0.020000018 0.002857181 0.071372129 4278190080 9473
0.020000039 0.002857181 0.071372055 4278190080 10198
0.025714304 -0.0057142288 0.072331607 4278190080 9380
0.020977212 -0.011428514 0.077142835 4278190080 9353
0.025714304 -0.0044560879 0.071428552 4278190080 9382
0.017142896 -0.011428514 0.07922177 4278190080 10081
0.014285753 0.002857181 0.076469146 4278190080 10165
0.022857163 -0.011428514 0.07637237 4278190080 9355
0.025714304 -0.0028570858 0.070078872 4278190080 9383
0.025714304 -0.0085713714 0.073900968 4278190080 9379
0.013469031 3.8146972e-08 0.079999976 4278190080 10167
0.013469016 5.7220458e-08 0.079999976 4278190080 10077
0.013469066 3.8146972e-08 0.080000058 4278190080 8982
0.013469053 5.7220458e-08 0.080000058 4278190080 8636
0.01398412 0.002857181 0.077142835 4278190080 10163
0.016764672 -0.011428514 0.079999976 4278190080 10079
0.016764693 -0.011428514 0.080000058 4278190080 8661
0.025714304 -0.0093819033 0.074285701 4278190080 9378
