# .PCD v0.7 - Point Cloud Data file format
VERSION 0.7
FIELDS x y z rgba label
SIZE 4 4 4 4 4
TYPE F F F U U
COUNT 1 1 1 1 1
WIDTH 354
HEIGHT 1
VIEWPOINT 0 0 0 1 0 0 0
POINTS 354
DATA ascii
0.228222 0.0094293887 0.10567039 4278190080 8108
0.23186551 0.0063701821 0.10977811 4278190080 8214
0.22683674 0.0058730035 0.10733716 4278190080 8368
0.23071513 0.006668021 0.10673869 4278190080 8151
0.23054922 0.0024007466 0.099504724 4278190080 8322
0.23082732 0.0065417946 0.10905154 4278190080 8220
0.23370577 -0.0043572229 0.099800959 4278190080 17828
0.23367313 -0.003935596 0.099130183 4278190080 17824
0.23337705 -0.0033559839 0.099107422 4278190080 17829
0.23301269 -0.0028368786 0.098269135 4278190080 17823
0.23713547 -0.010451975 0.10036424 4278190080 8334
0.23338957 -0.0046876646 0.097413115 4278190080 17886
0.23697428 -0.012319806 0.10095517 4278190080 8284
0.23677558 -0.010840836 0.098679893 4278190080 8335
0.23217323 -0.0030468011 0.096904919 4278190080 17894
0.23358454 -0.0044887294 0.095937796 4278190080 17996
0.23181349 -0.001102888 0.097267568 4278190080 17818
0.23486796 0.005485958 0.10579266 4278190080 8133
0.23522687 0.0056097568 0.10545457 4278190080 8129
0.23677313 -0.011239992 0.098467104 4278190080 8339
0.23203366 -0.0010557463 0.096904084 4278190080 17825
0.2316585 -0.002110437 0.096612461 4278190080 17848
0.23573749 -0.011758326 0.09878169 4278190080 8314
0.24090733 0.0020106421 0.1083785 4278190080 8219
0.24005857 0.0019187249 0.10706344 4278190080 8221
0.23934528 0.0012938381 0.10528533 4278190080 8263
0.24119647 0.00019336602 0.10424141 4278190080 8241
0.23994437 0.0007866181 0.10449172 4278190080 8247
0.24082352 -0.00023539872 0.10355251 4278190080 8242
0.2406235 0.002638184 0.107623 4278190080 8178
0.24128233 0.0028922255 0.109238 4278190080 8179
0.23952889 0.0013999692 0.10327513 4278190080 8194
0.24004814 0.0034213632 0.10715459 4278190080 8144
0.24180147 0.0031859716 0.11081292 4278190080 8189
0.24036719 0.0036602153 0.10832284 4278190080 8145
0.23514217 -0.0023588797 0.10080687 4278190080 17774
0.24187513 0.0022732422 0.11447237 4278190080 8332
0.23665962 -0.010451186 0.10063069 4278190080 8331
0.24162345 -0.006270784 0.11020177 4278190080 8418
0.24158743 -0.0053561758 0.1116189 4278190080 8494
0.2403343 -0.0053422656 0.10987572 4278190080 8477
0.24086629 -0.0084757218 0.10863852 4278190080 8373
0.23977664 -0.0053582639 0.10903813 4278190080 8497
0.24139248 -0.0081743067 0.10828603 4278190080 8419
0.24057856 -0.0085876202 0.10789129 4278190080 8356
0.24110144 -0.0036171367 0.11015559 4278190080 8485
0.23936531 -0.0091661019 0.10747841 4278190080 8338
0.24006748 -0.0089120725 0.10717216 4278190080 8362
0.24098183 -0.0032758559 0.11000385 4278190080 8470
0.2426611 -0.0034183098 0.1119166 4278190080 8462
0.24361426 -0.0044363244 0.11325387 4278190080 8490
0.24182838 -0.0081881359 0.10694183 4278190080 8390
0.24190642 -0.0076145451 0.10675635 4278190080 8436
0.23882449 -0.0091763446 0.1066448 4278190080 8330
0.23930016 -0.0052670441 0.10676939 4278190080 8495
0.23957796 -0.0090525802 0.10604192 4278190080 8354
0.23934457 -0.0062075877 0.1060579 4278190080 8478
0.24050681 -0.0023271167 0.10918927 4278190080 8453
0.24183126 -0.0020361235 0.11084956 4278190080 8446
0.2384543 -0.011806968 0.10781832 4278190080 8274
0.241733 -0.0081872148 0.1058366 4278190080 8417
0.23925142 -0.0046620038 0.10653954 4278190080 8474
0.23925762 -0.0042581065 0.10674886 4278190080 8491
0.24378723 -0.0028620381 0.11310193 4278190080 8503
0.23924653 -0.0038475296 0.1069522 4278190080 8460
0.23953372 -0.0091452347 0.10570784 4278190080 8350
0.24141155 -0.009076912 0.10572422 4278190080 8400
0.2400001 -0.0023746209 0.10837091 4278190080 8450
0.2392287 -0.0044727069 0.10611179 4278190080 8449
0.24008551 -0.012243562 0.10693285 4278190080 8290
0.23975343 -0.0021043937 0.10785925 4278190080 8459
0.23813176 -0.0095320148 0.10554644 4278190080 8347
0.24511859 -0.0042035617 0.11503746 4278190080 8486
0.24513388 -0.0039021603 0.11493412 4278190080 8487
0.24380094 -0.0016477853 0.11267152 4278190080 8456
0.23943605 -0.011596804 0.10584997 4278190080 8313
0.23812671 -0.009339883 0.10512481 4278190080 8323
0.2396781 -0.0017818958 0.10772542 4278190080 8480
0.23927946 -0.0026829897 0.10653816 4278190080 8481
0.23913136 -0.0043682498 0.10534506 4278190080 8502
0.23796016 -0.012041532 0.10634657 4278190080 8282
0.24402104 -0.0013429455 0.11090948 4278190080 8440
0.24166831 -0.0083101988 0.10442165 4278190080 8433
0.23968287 -0.0014877174 0.10762043 4278190080 8468
0.23899858 -0.0086711179 0.10436264 4278190080 8361
0.24377674 -0.0012987546 0.10972515 4278190080 8428
0.23789603 -0.009952669 0.10493073 4278190080 8329
0.23913269 -0.0049994751 0.10451326 4278190080 8499
0.23783697 -0.010036878 0.10459305 4278190080 8344
0.23895372 -0.011927977 0.10513851 4278190080 8287
0.24013856 -0.0071228798 0.10371052 4278190080 8501
0.23908588 -0.0026577655 0.10542288 4278190080 8448
0.24175087 -0.0092802029 0.10369828 4278190080 8424
0.23880292 -0.011976526 0.10476385 4278190080 8285
0.24349621 -5.8696237e-06 0.11088262 4278190080 8337
0.23884369 -0.01229535 0.10488012 4278190080 8289
0.23898068 -0.0013986926 0.10600707 4278190080 8482
0.24206457 -0.0089120921 0.10326453 4278190080 8442
0.23852733 -0.012277537 0.10445002 4278190080 8295
0.23734416 -0.0097619109 0.103691 4278190080 8343
0.23913118 -0.0035321824 0.1039786 4278190080 8457
0.23924884 -0.00078961533 0.10620165 4278190080 8471
0.23904549 -0.0030943751 0.10415602 4278190080 8475
0.24186674 -0.00031443863 0.10687859 4278190080 8321
0.24556062 -0.00091859716 0.11414394 4278190080 8394
0.23853403 -0.0092230923 0.10304463 4278190080 8374
0.23893611 -0.0012016167 0.10557144 4278190080 8500
0.239159 -0.0036551454 0.10367474 4278190080 8466
0.23816033 -0.011636486 0.10380019 4278190080 8305
0.24406134 0.00067109265 0.11139666 4278190080 8273
0.24549228 -0.00052817725 0.11406814 4278190080 8363
0.24360158 0.00073753169 0.10992434 4278190080 8243
0.24286023 0.00050132751 0.10829465 4278190080 8257
0.23825081 -0.00010487484 0.10678867 4278190080 8469
0.24105845 0.00077158987 0.10793941 4278190080 8268
0.24140108 -0.0010367392 0.10518136 4278190080 8346
0.24127594 -0.015506932 0.10663978 4278190080 8230
0.24071436 0.0010870697 0.11520544 4278190080 8476
0.2465046 -0.0020498645 0.11613711 4278190080 8489
0.23913716 -0.0026525741 0.10365948 4278190080 8464
0.24705447 -0.0042975154 0.11746377 4278190080 8493
0.23767288 -0.010950507 0.10311269 4278190080 8286
0.24113938 -0.015560217 0.10625827 4278190080 8209
0.24234286 -0.015439457 0.1062948 4278190080 8239
0.23815985 -0.0092934407 0.10229089 4278190080 8357
0.245268 0.00066140748 0.11287758 4278190080 8276
0.23947898 0.0018431887 0.11402155 4278190080 8410
0.24136093 -0.010285485 0.10218278 4278190080 8408
0.24238193 -0.015564525 0.10597359 4278190080 8260
0.23708741 -0.012246847 0.1033702 4278190080 8270
0.24227919 -0.015318963 0.1055005 4278190080 8245
0.2399974 -0.0081505328 0.10157409 4278190080 8454
0.24334265 0.0020131532 0.11245548 4278190080 8229
0.24395579 -0.0090081366 0.11476409 4278190080 8326
0.24371581 -0.0114998 0.11157414 4278190080 8312
0.2433489 -0.01252318 0.11108261 4278190080 8303
0.24394897 -0.0086943936 0.11465721 4278190080 8336
0.2432292 -0.011740107 0.11116285 4278190080 8300
0.24343115 -0.0086166458 0.11412155 4278190080 8325
0.24270561 -0.0094127674 0.11272563 4278190080 8324
0.24453823 -0.0078236042 0.11592431 4278190080 8360
0.24029028 -0.011327607 0.11210097 4278190080 8277
0.24296191 -0.012172926 0.11050148 4278190080 8316
0.24304564 -0.0077268318 0.11401219 4278190080 8355
0.24271008 -0.011029516 0.11042842 4278190080 8291
0.2461419 -0.0077202334 0.11858004 4278190080 8377
0.24230233 -0.010986322 0.10994627 4278190080 8310
0.24680765 -0.007729813 0.11953033 4278190080 8358
0.23966113 -0.01099714 0.11110048 4278190080 8271
0.24286672 -0.0062461975 0.11597107 4278190080 8423
0.24137409 -0.0090501662 0.110805 4278190080 8328
0.2415504 -0.014971131 0.10874499 4278190080 8213
0.24494621 -0.0063175065 0.11880346 4278190080 8437
0.24121845 -0.009406805 0.11052363 4278190080 8341
0.24187031 -0.0079633687 0.11159948 4278190080 8349
0.24264731 -0.0059748027 0.1154511 4278190080 8431
0.24290542 -0.005841794 0.1162078 4278190080 8425
0.24352171 -0.0057597728 0.11635448 4278190080 8392
0.24180299 -0.01143864 0.10887549 4278190080 8315
0.24751195 -0.0076343846 0.12084182 4278190080 8359
0.23943806 -0.011650736 0.10980883 4278190080 8279
0.24164101 -0.010956688 0.1090434 4278190080 8292
0.24150503 -0.015060792 0.1083936 4278190080 8210
0.24161737 -0.0086185802 0.1103114 4278190080 8370
0.24772793 -0.007595073 0.12127313 4278190080 8369
0.24152218 -0.0081678182 0.1104951 4278190080 8371
0.24141569 -0.0086533474 0.10991286 4278190080 8351
0.24159376 -0.015938267 0.10795691 4278190080 8237
0.24710691 -0.0057506515 0.11836872 4278190080 8447
0.2428585 -0.0052506742 0.11489459 4278190080 8434
0.24221195 -0.005434833 0.11441603 4278190080 8385
0.24645895 -0.0056939423 0.1197875 4278190080 8387
0.24054639 -0.0090684975 0.10952134 4278190080 8333
0.24343346 -0.0051628207 0.11383193 4278190080 8498
0.24151601 -0.015386817 0.10739311 4278190080 8226
0.24106191 -0.0064045689 0.11191402 4278190080 8386
0.24108447 -0.007161424 0.11074227 4278190080 8435
0.24116212 -0.0058043567 0.11281327 4278190080 8415
0.24309036 -0.0051526399 0.11337473 4278190080 8452
0.24402246 -0.018208811 0.10771484 4278190080 8191
0.24791434 -0.0056111515 0.11892508 4278190080 8445
0.24099426 -0.0087149683 0.10911202 4278190080 8382
0.24184671 -0.018269537 0.1078588 4278190080 8187
0.24640825 -0.0046167583 0.11664961 4278190080 8472
0.24798349 -0.0053234743 0.11884292 4278190080 8467
0.24711311 -0.0060857991 0.12162388 4278190080 8426
0.24930029 -0.0087251374 0.12330609 4278190080 6006
0.24834901 -0.0071466533 0.1224539 4278190080 8376
0.24280408 -0.014375077 0.11258155 4278190080 8231
0.24480338 -0.012521897 0.11330912 4278190080 8301
0.2448608 -0.011798397 0.11345815 4278190080 8298
0.24537112 -0.0098175481 0.11654032 4278190080 8340
0.24341132 -0.017937927 0.11038733 4278190080 8186
0.24616724 -0.009138451 0.11766358 4278190080 8319
0.24498646 -0.018059069 0.10978094 4278190080 8200
0.24430823 -0.011386729 0.11280484 4278190080 8297
0.24517331 -0.0091168387 0.11625112 4278190080 8318
0.24416645 -0.011445729 0.11241473 4278190080 8302
0.24392503 -0.010927738 0.11255425 4278190080 8307
0.24758659 -0.013281359 0.11913776 4278190080 6050
0.24757831 -0.014133984 0.11735179 4278190080 8264
0.2443219 -0.014894133 0.11723005 4278190080 8042
0.24444492 -0.015054036 0.11694885 4278190080 8050
0.24882314 -0.013090437 0.11993868 4278190080 8269
0.24861543 -0.013128252 0.11950383 4278190080 8281
0.24713571 -0.014519738 0.11658549 4278190080 8262
0.24515592 -0.016571669 0.11519019 4278190080 8072
0.24857295 -0.012786366 0.11937974 4278190080 8266
0.24668273 -0.016829357 0.11471156 4278190080 8204
0.247124 -0.013750589 0.11671718 4278190080 8249
0.24467902 -0.014753049 0.11546214 4278190080 8212
0.24776506 -0.0116718 0.11996806 4278190080 6052
0.24406464 -0.019447844 0.11394909 4278190080 8065
0.24543096 -0.017981451 0.11358029 4278190080 8181
0.24854742 -0.011686496 0.11937343 4278190080 8296
0.24819221 -0.011347136 0.11877438 4278190080 8317
0.24360971 -0.018615613 0.11353388 4278190080 8058
0.24772248 -0.010892743 0.12016508 4278190080 6022
0.24618796 -0.013963271 0.11462053 4278190080 8254
0.24981499 -0.011873458 0.12442031 4278190080 5892
0.24834707 -0.010782681 0.12160159 4278190080 6004
0.24752139 -0.011331344 0.11781105 4278190080 8311
0.24914563 -0.011191941 0.12370829 4278190080 5905
0.24446021 -0.018643945 0.11289992 4278190080 8159
0.24968231 -0.011510207 0.12430401 4278190080 5852
0.24340212 -0.018989839 0.11322483 4278190080 8075
0.24738713 -0.010521808 0.11999447 4278190080 6031
0.24405694 -0.014415563 0.1144297 4278190080 8216
0.2485442 -0.010373263 0.12194311 4278190080 5960
0.24997495 -0.011461041 0.12475329 4278190080 5867
0.24866672 -0.010525999 0.12305679 4278190080 5938
0.24314742 -0.019344935 0.11289698 4278190080 8070
0.24604446 -0.015552697 0.11281663 4278190080 8258
0.24990104 -0.011100858 0.12465401 4278190080 5859
0.24591607 -0.014197871 0.11348374 4278190080 8248
0.25182319 -0.01293629 0.12612376 4278190080 5578
0.24571213 -0.012529435 0.11467524 4278190080 8306
0.24354905 -0.014332308 0.11388917 4278190080 8227
0.24933168 -0.010003328 0.12193003 4278190080 8320
0.24563576 -0.017780118 0.11175192 4278190080 8193
0.24914517 -0.0099155391 0.12276454 4278190080 5971
0.24469696 -0.01975967 0.11160333 4278190080 8169
0.24589717 -0.011302436 0.11545068 4278190080 8308
0.24546991 -0.017822301 0.11134306 4278190080 8192
0.24404207 -0.017868008 0.11165878 4278190080 8182
0.24852569 -0.0094000213 0.12314665 4278190080 5847
0.24518508 -0.01255496 0.11379339 4278190080 8288
0.24877127 -0.020485604 0.12109883 4278190080 5939
0.25061733 -0.020890744 0.12193252 4278190080 5695
0.24652246 -0.024226859 0.12021837 4278190080 8044
0.25146168 -0.022907289 0.12284531 4278190080 5333
0.25169316 -0.02287364 0.12326755 4278190080 5271
0.24618863 -0.023097623 0.1197448 4278190080 8034
0.24675004 -0.025862059 0.12119929 4278190080 8051
0.24826241 -0.019712377 0.12080762 4278190080 5873
0.25189745 -0.02165642 0.12317107 4278190080 5603
0.25194606 -0.022059342 0.12390243 4278190080 5427
0.24658549 -0.025154134 0.11978484 4278190080 8046
0.24837562 -0.018946778 0.12104765 4278190080 5868
0.2466118 -0.025829121 0.12001224 4278190080 8045
0.25235632 -0.022831807 0.12417053 4278190080 5278
0.24594231 -0.022124317 0.1189739 4278190080 8038
0.2457891 -0.021615185 0.11913557 4278190080 8025
0.24600044 -0.022596851 0.11876959 4278190080 8024
0.24884893 -0.018089985 0.12211037 4278190080 5933
0.25238341 -0.0212649 0.1245897 4278190080 5269
0.2491806 -0.018058881 0.12256624 4278190080 5912
0.25151721 -0.019198978 0.12404508 4278190080 5610
0.25259551 -0.024711912 0.12447851 4278190080 5015
0.25125 -0.01881345 0.12389302 4278190080 5523
0.25274944 -0.021991188 0.12541814 4278190080 4928
0.245856 -0.022445226 0.11792281 4278190080 8033
0.2519196 -0.019176714 0.12451873 4278190080 5645
0.24625994 -0.026701527 0.11905494 4278190080 8029
0.24672894 -0.026685003 0.11881695 4278190080 8023
0.25348705 -0.023451995 0.12491773 4278190080 5199
0.24633154 -0.024979744 0.11776372 4278190080 8055
0.24565585 -0.021704813 0.11761991 4278190080 8041
0.24715716 -0.017883983 0.11977359 4278190080 5885
0.24530643 -0.019658459 0.11872055 4278190080 8053
0.25096244 -0.017651178 0.1239394 4278190080 5576
0.24739276 -0.017490344 0.12011938 4278190080 5919
0.24534598 -0.019791165 0.11840155 4278190080 8052
0.25181982 -0.018384226 0.12469567 4278190080 5565
0.24539082 -0.020374509 0.11785526 4278190080 8026
0.25342613 -0.021590991 0.1262448 4278190080 5059
0.24771686 -0.016686626 0.12077297 4278190080 5900
0.2536701 -0.023114167 0.12626024 4278190080 5011
0.24527214 -0.027164111 0.11878945 4278190080 8022
0.24680334 -0.026740454 0.11772405 4278190080 8037
0.24543071 -0.020176804 0.11742858 4278190080 8049
0.25338 -0.026258631 0.12499367 4278190080 5112
0.25360513 -0.025447579 0.12562226 4278190080 5021
0.24819423 -0.016247526 0.12154692 4278190080 5849
0.24527963 -0.019671187 0.11759178 4278190080 8047
0.25392711 -0.023865681 0.12648591 4278190080 5004
0.2463474 -0.026005289 0.11697134 4278190080 8039
0.25267112 -0.018456683 0.12593272 4278190080 5248
0.248469 -0.015851952 0.12190763 4278190080 5937
0.24682727 -0.027201802 0.11750339 4278190080 8054
0.24814454 -0.015888389 0.12145743 4278190080 5891
0.24520698 -0.019313386 0.11745265 4278190080 8028
0.24612832 -0.0249204 0.11641107 4278190080 8064
0.25102335 -0.016471066 0.12409005 4278190080 5676
0.24664453 -0.02657952 0.11686881 4278190080 8027
0.25376815 -0.020790378 0.12690595 4278190080 5065
0.24519116 -0.018410835 0.11790416 4278190080 8030
0.25415447 -0.022690672 0.12704048 4278190080 4996
0.24603707 -0.025675884 0.11625979 4278190080 8073
0.24592866 -0.021244032 0.11586553 4278190080 8059
0.24603222 -0.020489302 0.11602184 4278190080 8071
0.24791847 -0.015821846 0.11993711 4278190080 6014
0.25351021 -0.019274265 0.12688468 4278190080 5012
0.24577077 -0.021976294 0.11568639 4278190080 8062
0.24509402 -0.018044576 0.11775414 4278190080 8032
0.25437531 -0.025008641 0.12684341 4278190080 4981
0.24505967 -0.017583845 0.11796812 4278190080 8035
0.24545611 -0.024436427 0.11567066 4278190080 8061
0.24511114 -0.018286217 0.11708893 4278190080 8031
0.25441486 -0.025800837 0.12664671 4278190080 4908
0.24506055 -0.016805226 0.11809054 4278190080 8043
0.24811523 -0.029579947 0.11807732 4278190080 8021
0.25109506 -0.015274432 0.12460136 4278190080 5749
0.24679746 -0.028210362 0.11668934 4278190080 8048
0.24504705 -0.01849797 0.11638844 4278190080 8036
0.25492242 -0.024763089 0.12735578 4278190080 4853
0.24506512 -0.024400506 0.1151662 4278190080 8074
0.25499666 -0.023203012 0.12779437 4278190080 4883
0.24848436 -0.014306193 0.1223277 4278190080 5882
0.24500655 -0.022590484 0.11491241 4278190080 8066
0.24731505 -0.016762195 0.11688021 4278190080 8056
0.24765103 -0.014435544 0.12101906 4278190080 5943
0.25421783 -0.01921935 0.12780598 4278190080 5052
0.24689987 -0.015155678 0.11879266 4278190080 5979
0.24832591 -0.013940766 0.12220687 4278190080 5889
0.25488195 -0.020724488 0.12830877 4278190080 5027
0.2527976 -0.016122986 0.12658305 4278190080 5469
0.2471267 -0.016360331 0.11669025 4278190080 8057
0.25454688 -0.019188866 0.1282623 4278190080 4995
0.24743271 -0.016786939 0.11605246 4278190080 8206
0.25356609 -0.016960269 0.12751512 4278190080 4962
0.25370234 -0.03017268 0.12440159 4278190080 5070
0.25292391 -0.031003514 0.12290804 4278190080 4992
0.25349009 -0.030559363 0.12406057 4278190080 5009
0.24444953 -0.024394607 0.114232 4278190080 8067
0.25174603 -0.031450059 0.12089861 4278190080 5088
0.25584817 -0.023684395 0.12846257 4278190080 4514
0.24465087 -0.016915485 0.11612462 4278190080 8040
0.24416685 -0.023165083 0.11411154 4278190080 8068
0.24540374 -0.027028093 0.11463556 4278190080 8069
0.24420597 -0.02173413 0.11401266 4278190080 8060
0.25597411 -0.023279104 0.12878054 4278190080 4601
0.24529372 -0.018246131 0.11461953 4278190080 8177
0.25568146 -0.027992699 0.12710272 4278190080 4684
