# .PCD v0.7 - Point Cloud Data file format
VERSION 0.7
FIELDS x y z rgba label
SIZE 4 4 4 4 4
TYPE F F F U U
COUNT 1 1 1 1 1
WIDTH 139
HEIGHT 1
VIEWPOINT 0 0 0 1 0 0 0
POINTS 139
DATA ascii
-0.054285713 -0.054285713 0.17278504 4278190080 995
-0.059469759 -0.054285713 0.17428569 4278190080 972
-0.05999998 -0.054285713 0.1744619 4278190080 308
-0.059999999 -0.054285713 0.17446192 4278190080 975
-0.054285713 -0.051428571 0.17202447 4278190080 996
-0.051428571 -0.04857143 0.1702688 4278190080 1011
-0.050716616 -0.045714285 0.16857141 4278190080 1024
-0.06340231 -0.051428571 0.17428569 4278190080 295
-0.062857121 -0.051987275 0.17428569 4278190080 296
-0.057142857 -0.054285713 0.17349003 4278190080 974
-0.051428571 -0.051386453 0.17142856 4278190080 1010
-0.051428571 -0.051428571 0.17144422 4278190080 1009
-0.059999999 -0.053868435 0.17428569 4278190080 976
-0.05999998 -0.053868465 0.17428569 4278190080 309
-0.051353347 -0.051428571 0.17142856 4278190080 1020
-0.065714262 -0.04857143 0.17413393 4278190080 285
-0.062857121 -0.051428571 0.17406173 4278190080 297
-0.057142857 -0.048215717 0.17142856 4278190080 982
-0.05999998 -0.04857143 0.17209026 4278190080 311
-0.059999999 -0.04857143 0.17209029 4278190080 979
-0.057142857 -0.04857143 0.17156118 4278190080 980
-0.056283519 -0.04857143 0.17142856 4278190080 997
-0.062857121 -0.04857143 0.17309719 4278190080 298
-0.054285713 -0.04857143 0.17103794 4278190080 999
-0.065714262 -0.045714285 0.17341597 4278190080 287
-0.054285713 -0.049560938 0.17142856 4278190080 998
-0.05999998 -0.051428571 0.17322649 4278190080 310
-0.059999999 -0.051428571 0.17322652 4278190080 977
-0.051428571 -0.045231208 0.16857141 4278190080 1013
-0.057142857 -0.051428571 0.17257077 4278190080 978
-0.051428571 -0.045714285 0.16880746 4278190080 1012
-0.059999999 -0.046528663 0.17142856 4278190080 981
-0.05999998 -0.046528734 0.17142856 4278190080 313
-0.065714262 -0.039999999 0.17188849 4278190080 289
-0.065714262 -0.040000018 0.1718885 4278190080 429
-0.062857121 -0.045714285 0.17219675 4278190080 299
-0.066264808 -0.037142877 0.17142856 4278190080 426
-0.065714262 -0.042857144 0.17262794 4278190080 288
-0.062857121 -0.043080956 0.17142856 4278190080 301
-0.057142857 -0.045714285 0.17040238 4278190080 983
-0.05999998 -0.045714285 0.171157 4278190080 314
-0.059999999 -0.045714285 0.17115703 4278190080 984
-0.051428571 -0.042857144 0.1674723 4278190080 1014
-0.060695142 -0.045714285 0.17142856 4278190080 312
-0.050683443 -0.039999999 0.16571426 4278190080 1028
-0.050683368 -0.040000018 0.16571426 4278190080 1120
-0.054285713 -0.045714285 0.16965562 4278190080 1000
-0.057142857 -0.042857144 0.16925034 4278190080 986
-0.05999998 -0.042857144 0.17017815 4278190080 315
-0.059999999 -0.042857144 0.17017817 4278190080 985
-0.054914147 -0.042857144 0.16857141 4278190080 1001
-0.054285713 -0.042857144 0.16839585 4278190080 1003
-0.051428571 -0.039305441 0.16571426 4278190080 1107
-0.054285713 -0.043282952 0.16857141 4278190080 1002
-0.051428571 -0.039999999 0.16602002 4278190080 1015
-0.051428571 -0.040000018 0.16602005 4278190080 1109
-0.064780466 -0.040000018 0.17142856 4278190080 441
-0.064780518 -0.039999999 0.17142856 4278190080 303
-0.065714262 -0.037142877 0.17117047 4278190080 428
-0.065714262 -0.038196877 0.17142856 4278190080 427
-0.062857121 -0.042857144 0.17136131 4278190080 302
-0.063009985 -0.042857144 0.17142856 4278190080 300
-0.054285713 -0.036466394 0.16571426 4278190080 1096
-0.054285713 -0.037142877 0.16597447 4278190080 1094
-0.053647514 -0.037142877 0.16571426 4278190080 1106
-0.058090899 -0.039999999 0.16857141 4278190080 987
-0.058090832 -0.040000018 0.16857141 4278190080 1070
-0.057142857 -0.039999999 0.16822778 4278190080 989
-0.057142857 -0.040000018 0.16822779 4278190080 1071
-0.05999998 -0.039999999 0.16917346 4278190080 316
-0.059999999 -0.039999999 0.16917348 4278190080 990
-0.05999998 -0.040000018 0.16917348 4278190080 457
-0.059999999 -0.040000018 0.16917349 4278190080 1074
-0.057142857 -0.040990595 0.16857141 4278190080 988
-0.054285713 -0.039999999 0.16721642 4278190080 1004
-0.054285713 -0.040000018 0.16721645 4278190080 1093
-0.062857121 -0.039999999 0.17050833 4278190080 304
-0.062857121 -0.040000018 0.17050835 4278190080 442
-0.051428571 -0.034285732 0.16355026 4278190080 1110
-0.051428571 -0.037142877 0.16477397 4278190080 1108
-0.067219712 -0.034285732 0.17142856 4278190080 430
-0.065714262 -0.034285732 0.17061056 4278190080 431
-0.060309712 -0.037142877 0.16857141 4278190080 454
-0.05999998 -0.037142877 0.16842589 4278190080 456
-0.059999999 -0.037142877 0.16842592 4278190080 1072
-0.062857121 -0.037142877 0.16981134 4278190080 443
-0.059999999 -0.037692476 0.16857141 4278190080 1069
-0.05999998 -0.037692569 0.16857141 4278190080 455
-0.057142857 -0.037142877 0.1671285 4278190080 1073
-0.054285713 -0.034285732 0.16482767 4278190080 1097
-0.059999999 -0.028571447 0.16620275 4278190080 1083
-0.05999998 -0.028571447 0.16620272 4278190080 461
-0.05999998 -0.026768319 0.16571426 4278190080 463
-0.059999999 -0.026768172 0.16571426 4278190080 1084
-0.062857121 -0.028571447 0.16771404 4278190080 449
-0.059182707 -0.028571447 0.16571426 4278190080 1081
-0.060526878 -0.025714304 0.16571426 4278190080 462
-0.059999999 -0.025714304 0.16541706 4278190080 1085
-0.05999998 -0.025714304 0.165417 4278190080 464
-0.062857121 -0.025714304 0.16706489 4278190080 451
-0.05999998 -0.03142859 0.16694866 4278190080 460
-0.059999999 -0.03142859 0.16694871 4278190080 1080
-0.064410083 -0.028571447 0.16857141 4278190080 448
-0.062857121 -0.03142859 0.16841437 4278190080 447
-0.06316153 -0.03142859 0.16857141 4278190080 445
-0.057142857 -0.028571447 0.16444358 4278190080 1082
-0.057948086 -0.03142859 0.16571426 4278190080 1077
-0.062857121 -0.032023013 0.16857141 4278190080 446
-0.065369949 -0.025714304 0.16857141 4278190080 450
-0.061748557 -0.022857163 0.16571426 4278190080 465
-0.065714262 -0.028571447 0.16928264 4278190080 434
-0.057142857 -0.025714304 0.16376877 4278190080 1086
-0.057142857 -0.03142859 0.16519485 4278190080 1079
-0.062857121 -0.022857163 0.16642033 4278190080 452
-0.065714262 -0.025714304 0.1687686 4278190080 435
-0.059999999 -0.022857163 0.16465832 4278190080 1087
-0.05999998 -0.022857163 0.16465828 4278190080 466
-0.065714262 -0.024598749 0.16857141 4278190080 437
-0.05999998 -0.034285732 0.16774026 4278190080 459
-0.059999999 -0.034285732 0.16774029 4278190080 1075
-0.057142857 -0.033209097 0.16571426 4278190080 1078
-0.065714262 -0.03142859 0.16992022 4278190080 433
-0.061734606 -0.034285732 0.16857141 4278190080 458
-0.062857121 -0.034285732 0.16916429 4278190080 444
-0.065714262 -0.022857163 0.16825761 4278190080 438
-0.057142857 -0.022857163 0.16305435 4278190080 1088
-0.055161618 -0.025714304 0.16285712 4278190080 1100
-0.057142857 -0.034285732 0.16609395 4278190080 1076
-0.066193156 -0.022857163 0.16857141 4278190080 436
-0.054285713 -0.028571447 0.16318017 4278190080 1099
-0.056706559 -0.022857163 0.16285712 4278190080 1103
-0.054285713 -0.027363805 0.16285712 4278190080 1101
-0.056325078 -0.034285732 0.16571426 4278190080 1095
-0.054285713 -0.03142859 0.16400598 4278190080 1098
-0.057142857 -0.021991799 0.16285712 4278190080 1090
-0.062723897 -0.020000018 0.16571426 4278190080 467
-0.062723875 -0.019999944 0.16571426 4278190080 9335
-0.062857121 -0.020000018 0.16580927 4278190080 453
-0.062857121 -0.019999944 0.16580929 4278190080 9323
