# .PCD v0.7 - Point Cloud Data file format
VERSION 0.7
FIELDS x y z rgb
SIZE 4 4 4 4
TYPE F F F U
COUNT 1 1 1 1
WIDTH 258
HEIGHT 1
VIEWPOINT 0 0 0 1 0 0 0
POINTS 258
DATA ascii
0.055099934 -0.20599511 0.099959686 4278190080
0.053781256 -0.20645724 0.10049015 4278190080
0.052411962 -0.20710117 0.1011019 4278190080
0.057797637 -0.20504242 0.098871768 4278190080
0.055336118 -0.20621762 0.10088813 4278190080
0.059330165 -0.20262632 0.093162842 4278190080
0.059330184 -0.2026263 0.093162864 4278190080
0.052111648 -0.20676668 0.099915624 4278190080
0.057314195 -0.20444782 0.096955866 4278190080
0.058826622 -0.20198274 0.091164589 4278190080
0.058826633 -0.20198272 0.091164589 4278190080
0.056107678 -0.2014268 0.088552572 4278190080
0.056966681 -0.2040426 0.095581129 4278190080
0.056966688 -0.20404266 0.095581159 4278190080
0.054176774 -0.20487812 0.096303217 4278190080
0.051593386 -0.20629635 0.097880304 4278190080
0.051593393 -0.2062964 0.097880334 4278190080
0.054269958 -0.20501076 0.096674517 4278190080
0.054269966 -0.2050108 0.096674562 4278190080
0.056120612 -0.20280463 0.092206195 4278190080
0.045406826 -0.20782942 0.096987695 4278190080
0.056245983 -0.20298398 0.092705823 4278190080
0.054770142 -0.20478664 0.096455179 4278190080
0.054770276 -0.20478664 0.096455157 4278190080
0.048833478 -0.207389 0.098745853 4278190080
0.04926759 -0.20731045 0.098889813 4278190080
0.049267698 -0.20731045 0.098889798 4278190080
0.045568917 -0.20799275 0.09762606 4278190080
0.048912011 -0.20750657 0.099059395 4278190080
0.048912019 -0.20750661 0.099059433 4278190080
0.044676293 -0.2081614 0.097309783 4278190080
0.053039774 -0.20350812 0.091800414 4278190080
0.050755542 -0.20518795 0.094551243 4278190080
0.049795989 -0.20562647 0.094975211 4278190080
0.048080929 -0.2065047 0.095768057 4278190080
0.050948344 -0.20543259 0.095316157 4278190080
0.053441003 -0.20404238 0.093395039 4278190080
0.055127501 -0.20158871 0.088271089 4278190080
0.055290028 -0.20181066 0.08891762 4278190080
0.054450009 -0.20066807 0.085576437 4278190080
0.055390429 -0.20310532 0.092516556 4278190080
0.050704084 -0.20225419 0.087184832 4278190080
0.049858276 -0.20399857 0.090985805 4278190080
0.047245868 -0.20544018 0.0924545 4278190080
0.049916837 -0.20406605 0.091217376 4278190080
0.050177019 -0.20393822 0.091099098 4278190080
0.051761881 -0.20177157 0.086717755 4278190080
0.051967554 -0.20204976 0.087535635 4278190080
0.044428017 -0.20662808 0.09310893 4278190080
0.045174409 -0.20647655 0.093403071 4278190080
0.044575356 -0.20682153 0.093694203 4278190080
0.050860479 -0.20055941 0.083367437 4278190080
0.050926335 -0.20054908 0.083384812 4278190080
0.050915901 -0.20053504 0.083343312 4278190080
0.05260092 -0.20289874 0.090053476 4278190080
0.047705498 -0.20600671 0.094276175 4278190080
0.045394115 -0.2047836 0.089569129 4278190080
0.043737531 -0.20571348 0.090365253 4278190080
0.046405423 -0.20429091 0.089110956 4278190080
0.047641046 -0.20118113 0.082188807 4278190080
0.048247878 -0.20195538 0.084596798 4278190080
0.047408268 -0.20081928 0.08125791 4278190080
0.048731335 -0.20261484 0.086519957 4278190080
0.046612889 -0.20457615 0.089936495 4278190080
0.041069768 -0.20713784 0.091620147 4278190080
0.04908802 -0.20309992 0.087938674 4278190080
0.040740609 -0.20733207 0.091781862 4278190080
0.041155197 -0.20724313 0.091958746 4278190080
0.037760593 -0.20802431 0.090361118 4278190080
0.037760623 -0.20802429 0.090361163 4278190080
0.046225227 -0.19970977 0.078022353 4278190080
0.044334665 -0.20184195 0.080915354 4278190080
0.04291673 -0.20487359 0.087131239 4278190080
0.044754572 -0.20246552 0.082591385 4278190080
0.043899909 -0.20109218 0.079168499 4278190080
0.045431077 -0.20326731 0.085269019 4278190080
0.045585074 -0.20345815 0.085879467 4278190080
0.04329579 -0.20525159 0.088623658 4278190080
0.04341884 -0.20017017 0.077225283 4278190080
0.046156667 -0.20310642 0.085593313 4278190080
0.046473898 -0.20141631 0.081733882 4278190080
0.03941945 -0.20532088 0.085103557 4278190080
0.037347879 -0.2065185 0.086112022 4278190080
0.036760256 -0.2068803 0.086406291 4278190080
0.036760245 -0.20688036 0.08640632 4278190080
0.04124755 -0.2027595 0.080509439 4278190080
0.042087853 -0.20397253 0.083876699 4278190080
0.042091902 -0.20397036 0.083874792 4278190080
0.042092826 -0.20397159 0.083878465 4278190080
0.042038485 -0.20227179 0.080113091 4278190080
0.039952505 -0.20596278 0.087214544 4278190080
0.034099501 -0.20841509 0.087700307 4278190080
0.040250607 -0.2063238 0.08839529 4278190080
0.04144083 -0.20565307 0.087822333 4278190080
0.034378674 -0.20878823 0.088809982 4278190080
0.033088416 -0.20907842 0.088221774 4278190080
0.041198865 -0.2005481 0.076556012 4278190080
0.041198973 -0.2005481 0.076555997 4278190080
0.037587281 -0.20781814 0.089674987 4278190080
0.03758727 -0.20781818 0.089675009 4278190080
0.035921212 -0.20575306 0.083070539 4278190080
0.035921201 -0.20575306 0.083070554 4278190080
0.037677363 -0.20482874 0.082249396 4278190080
0.033276916 -0.20737015 0.084436677 4278190080
0.038587503 -0.20430544 0.08180739 4278190080
0.038802005 -0.2046112 0.08266212 4278190080
0.040374734 -0.20110008 0.076985277 4278190080
0.040374722 -0.20110001 0.07698524 4278190080
0.036609542 -0.20667349 0.085806683 4278190080
0.036609575 -0.20667347 0.085806742 4278190080
0.040154304 -0.20077389 0.076105595 4278190080
0.04106617 -0.20245107 0.079781123 4278190080
0.030617867 -0.20910907 0.085759975 4278190080
0.03351143 -0.20569204 0.080558166 4278190080
0.033511538 -0.20569204 0.080558158 4278190080
0.035092719 -0.20479202 0.079793632 4278190080
0.035092704 -0.20479208 0.079793662 4278190080
0.035092726 -0.20479208 0.079793677 4278190080
0.035092715 -0.20479213 0.079793692 4278190080
0.029793117 -0.20820704 0.08250396 4278190080
0.029793125 -0.20820707 0.082503989 4278190080
0.029700473 -0.20826498 0.08255069 4278190080
0.029700562 -0.20826496 0.082550675 4278190080
0.029817551 -0.2082397 0.08260107 4278190080
0.035486519 -0.20528443 0.081355236 4278190080
0.035486549 -0.2052844 0.081355289 4278190080
0.036824148 -0.20140533 0.074919373 4278190080
0.037334077 -0.20311946 0.078562602 4278190080
0.03733417 -0.20311946 0.078562587 4278190080
0.03687761 -0.20139423 0.074941166 4278190080
0.036866345 -0.20137233 0.074895635 4278190080
0.037726637 -0.20283441 0.078349918 4278190080
0.037726648 -0.20283446 0.078349955 4278190080
0.037833646 -0.20301113 0.078778997 4278190080
0.033264745 -0.20735541 0.08438848 4278190080
0.033220157 -0.20738292 0.084410816 4278190080
0.03072096 -0.20355371 0.074232534 4278190080
0.031144612 -0.20443685 0.07595174 4278190080
0.028775381 -0.20674032 0.078446731 4278190080
0.029504064 -0.20655994 0.078825518 4278190080
0.031585097 -0.20507625 0.077708244 4278190080
0.028946998 -0.20696823 0.079128727 4278190080
0.032580797 -0.2022664 0.073248386 4278190080
0.033233713 -0.20398466 0.076854259 4278190080
0.033520602 -0.2021241 0.073481694 4278190080
0.033520628 -0.20212409 0.073481739 4278190080
0.03336728 -0.2017917 0.072858088 4278190080
0.033367291 -0.20179164 0.072858065 4278190080
0.034233913 -0.20335358 0.076347724 4278190080
0.034233924 -0.20335354 0.076347709 4278190080
0.026295058 -0.20864217 0.080472015 4278190080
0.032169379 -0.20595996 0.080042124 4278190080
0.034465484 -0.20375623 0.077278554 4278190080
0.034465514 -0.20375621 0.077278599 4278190080
0.03212148 -0.20055375 0.069591925 4278190080
0.032121576 -0.20055373 0.069591895 4278190080
0.022820838 -0.20945293 0.078573033 4278190080
0.032600261 -0.20045854 0.069774963 4278190080
0.032600231 -0.20045856 0.069774926 4278190080
0.032600239 -0.20045856 0.069774881 4278190080
0.032600209 -0.20045857 0.069774844 4278190080
0.025647175 -0.20913154 0.080830045 4278190080
0.026492726 -0.20892566 0.081259862 4278190080
0.032505635 -0.20030841 0.06939628 4278190080
0.032505646 -0.20030837 0.069396257 4278190080
0.023061942 -0.20975621 0.079529293 4278190080
0.032433297 -0.20634784 0.081095085 4278190080
0.032433305 -0.2063479 0.081095129 4278190080
0.025396306 -0.20572563 0.073342577 4278190080
0.027243827 -0.20431858 0.072317317 4278190080
0.024612045 -0.20631008 0.073773034 4278190080
0.028578542 -0.20313445 0.071514383 4278190080
0.029289816 -0.20112489 0.068486527 4278190080
0.029289836 -0.20112489 0.068486601 4278190080
0.027810736 -0.20513517 0.074577257 4278190080
0.029861081 -0.20209819 0.07078056 4278190080
0.028997155 -0.20057894 0.067306019 4278190080
0.021972254 -0.20832168 0.075200334 4278190080
0.02201318 -0.20831095 0.075223267 4278190080
0.021982197 -0.20833203 0.075239539 4278190080
0.03026513 -0.20271549 0.072395205 4278190080
0.018799905 -0.2092019 0.073283061 4278190080
0.028088314 -0.20553161 0.075683445 4278190080
0.018441081 -0.20928921 0.07310082 4278190080
0.029028455 -0.20484683 0.075173303 4278190080
0.018523831 -0.20939234 0.073428907 4278190080
0.028372761 -0.19945483 0.064791918 4278190080
0.025449604 -0.20741396 0.077100515 4278190080
0.025433972 -0.20742603 0.077109247 4278190080
0.025454829 -0.20742047 0.077121221 4278190080
0.019415285 -0.20416605 0.064954609 4278190080
0.020571817 -0.20317116 0.064270444 4278190080
0.020571887 -0.20317116 0.064270422 4278190080
0.019965576 -0.20521697 0.06717702 4278190080
0.019098055 -0.2034793 0.063664444 4278190080
0.019098038 -0.20347932 0.063664377 4278190080
0.022454083 -0.20275076 0.065120317 4278190080
0.022454062 -0.20275077 0.065120235 4278190080
0.021337196 -0.20489269 0.067846909 4278190080
0.022903126 -0.20356987 0.066929564 4278190080
0.022029821 -0.20190284 0.06340269 4278190080
0.017478194 -0.2057649 0.066075467 4278190080
0.02029049 -0.205863 0.06849207 4278190080
0.016597934 -0.20596138 0.06567841 4278190080
0.024405038 -0.20229821 0.066048622 4278190080
0.024405126 -0.20229819 0.066048592 4278190080
0.023384826 -0.20440215 0.06886521 4278190080
0.016798966 -0.20640092 0.066496477 4278190080
0.018540936 -0.20248258 0.06142192 4278190080
0.018540919 -0.20248267 0.061421871 4278190080
0.016191039 -0.20402822 0.062635362 4278190080
0.016190954 -0.20402823 0.062635392 4278190080
0.016191091 -0.20402825 0.062635273 4278190080
0.016191006 -0.20402826 0.062635303 4278190080
0.021560185 -0.20104907 0.061510805 4278190080
0.015898202 -0.20430133 0.062816463 4278190080
0.015898189 -0.20430143 0.062816419 4278190080
0.015799392 -0.20412961 0.062419299 4278190080
0.01579937 -0.20412962 0.062419206 4278190080
0.01990021 -0.20145236 0.060669452 4278190080
0.019900262 -0.20145237 0.060669366 4278190080
0.023600455 -0.20057553 0.062482391 4278190080
0.025516365 -0.20128623 0.065370403 4278190080
0.01828815 -0.20748775 0.069640294 4278190080
0.025871718 -0.20193814 0.066802569 4278190080
0.025871739 -0.20193812 0.066802651 4278190080
0.023768665 -0.20511453 0.070413098 4278190080
0.017479569 -0.20767979 0.069242857 4278190080
0.02087857 -0.20689259 0.070856698 4278190080
0.025050314 -0.20401625 0.069656491 4278190080
0.024958992 -0.20026216 0.063123874 4278190080
0.017667592 -0.20799421 0.069997236 4278190080
0.022014268 -0.20661168 0.071446478 4278190080
0.018126294 -0.20188385 0.059768815 4278190080
0.021164238 -0.2003575 0.059918903 4278190080
0.021164222 -0.20035756 0.059918858 4278190080
0.026384052 -0.20286471 0.068865925 4278190080
0.024644874 -0.19964778 0.061853662 4278190080
0.021151559 -0.20733723 0.071950674 4278190080
0.01333597 -0.2065616 0.064568147 4278190080
0.013275339 -0.20643321 0.06432189 4278190080
0.013275324 -0.2064333 0.064321838 4278190080
0.014420887 -0.20835972 0.067871004 4278190080
0.013054807 -0.20662074 0.064451531 4278190080
0.013054853 -0.20662077 0.064451441 4278190080
0.014114714 -0.2084204 0.067754515 4278190080
0.026814986 -0.20357245 0.070593491 4278190080
0.014175924 -0.20853001 0.068000905 4278190080
0.016198978 -0.20232917 0.058856696 4278190080
0.015062827 -0.20323221 0.059501212 4278190080
0.027348865 -0.19970012 0.064282738 4278190080
0.028046617 -0.2014197 0.067876905 4278190080
0.028046716 -0.20141968 0.06787686 4278190080
0.024378113 -0.20596823 0.072839938 4278190080
0.017680906 -0.20102507 0.057969153 4278190080
0.022966221 -0.19885781 0.058871642 4278190080
0.022966273 -0.19885784 0.058871556 4278190080
0.024044406 -0.19858871 0.059438352 4278190080
