# .PCD v0.7 - Point Cloud Data file format
VERSION 0.7
FIELDS x y z rgb
SIZE 4 4 4 4
TYPE F F F U
COUNT 1 1 1 1
WIDTH 1057
HEIGHT 1
VIEWPOINT 0 0 0 1 0 0 0
POINTS 1057
DATA ascii
0.27898058 -0.10485342 0.16317289 4278190080
0.27982372 -0.10494292 0.1617036 4278190080
0.27901664 -0.10506576 0.15888552 4278190080
0.27868471 -0.10237752 0.1559083 4278190080
0.27873915 -0.10508932 0.15829481 4278190080
0.27769586 -0.105177 0.15609254 4278190080
0.27609873 -0.10528203 0.15331273 4278190080
0.27552575 -0.10374841 0.15040286 4278190080
0.27561009 -0.10529434 0.15286274 4278190080
0.27890822 -0.10772087 0.16301624 4278190080
0.27605471 -0.10765688 0.16314606 4278190080
0.2792635 -0.10778469 0.16186883 4278190080
0.27875599 -0.10570461 0.15892939 4278190080
0.2787993 -0.10782716 0.16081865 4278190080
0.2781693 -0.10790104 0.15906464 4278190080
0.27729529 -0.10802236 0.15624987 4278190080
0.27621809 -0.10813911 0.15344499 4278190080
0.27552372 -0.10817549 0.15242378 4278190080
0.27882937 -0.10891661 0.161945 4278190080
0.27603251 -0.11047538 0.16400485 4278190080
0.27798736 -0.11061043 0.16206862 4278190080
0.27720979 -0.11073387 0.15924914 4278190080
0.27663368 -0.11086197 0.15641986 4278190080
0.27566543 -0.11098115 0.15360986 4278190080
0.27544892 -0.11104557 0.15221705 4278190080
0.28205881 -0.1109072 0.17047374 4278190080
0.28196436 -0.11318068 0.16958632 4278190080
0.28119716 -0.11311403 0.17062296 4278190080
0.28305364 -0.11315593 0.17053337 4278190080
0.27603716 -0.11326764 0.16540177 4278190080
0.27680534 -0.11329696 0.16512124 4278190080
0.27603221 -0.11292637 0.16514154 4278190080
0.27721158 -0.11344717 0.16224433 4278190080
0.27655613 -0.11357337 0.15941899 4278190080
0.27566457 -0.11369435 0.15660493 4278190080
0.27550152 -0.11180688 0.15365793 4278190080
0.27558136 -0.11371286 0.15619586 4278190080
0.27896965 -0.11605132 0.16817097 4278190080
0.27626982 -0.11486222 0.17095141 4278190080
0.27755776 -0.1158863 0.17093714 4278190080
0.27897364 -0.11546634 0.16798274 4278190080
0.27612996 -0.11493871 0.16809793 4278190080
0.27910712 -0.11606227 0.16800494 4278190080
0.28190318 -0.11603729 0.16965427 4278190080
0.28082025 -0.1159599 0.17077924 4278190080
0.28371337 -0.11602511 0.17063947 4278190080
0.27895251 -0.1160679 0.16782828 4278190080
0.27764854 -0.11617037 0.16521837 4278190080
0.27704424 -0.11629777 0.16239046 4278190080
0.27725568 -0.11644354 0.15952311 4278190080
0.27648801 -0.11656729 0.1567031 4278190080
0.27551988 -0.11668648 0.15389298 4278190080
0.2754198 -0.11585818 0.15385787 4278190080
0.27537054 -0.11671575 0.15323921 4278190080
0.22511244 0.040028289 0.10584652 4278190080
0.22507007 0.039297868 0.10531268 4278190080
0.22442478 0.039340451 0.10591362 4278190080
0.22797176 0.040277448 0.10569298 4278190080
0.22791415 0.039224755 0.10499353 4278190080
0.23038982 0.039205998 0.10562534 4278190080
0.22220717 0.03750851 0.10611201 4278190080
0.22210258 0.036453459 0.10444356 4278190080
0.22140464 0.03655412 0.10619792 4278190080
0.22490048 0.036335137 0.10319041 4278190080
0.22775331 0.036303442 0.10303222 4278190080
0.22627987 0.036303144 0.10310518 4278190080
0.2278138 0.036268543 0.10303097 4278190080
0.23074664 0.03634312 0.10573915 4278190080
0.23074819 0.036405161 0.10574312 4278190080
0.23075035 0.036343388 0.10574601 4278190080
0.22775121 0.036268529 0.10300472 4278190080
0.22202697 0.035430681 0.10335764 4278190080
0.21999466 0.033590484 0.10354718 4278190080
0.21974328 0.03373722 0.10641637 4278190080
0.22489883 0.036298495 0.10317352 4278190080
0.23068467 0.033485748 0.10579181 4278190080
0.22844176 0.033399992 0.1031386 4278190080
0.23073195 0.033489406 0.10588498 4278190080
0.22189155 0.033450324 0.10148314 4278190080
0.22471935 0.033361182 0.10083308 4278190080
0.22764395 0.0333669 0.10214222 4278190080
0.21911955 0.032799069 0.10362879 4278190080
0.21825884 0.030916398 0.10662613 4278190080
0.21926571 0.033190943 0.10646646 4278190080
0.2178922 0.030783625 0.10378685 4278190080
0.23060314 0.030609408 0.10544877 4278190080
0.22901632 0.030532822 0.10324892 4278190080
0.23091532 0.030631021 0.10601424 4278190080
0.21895601 0.030637525 0.10125957 4278190080
0.22182564 0.032310911 0.10065446 4278190080
0.21947508 0.030606983 0.10085329 4278190080
0.22468978 0.032792509 0.10048953 4278190080
0.22649437 0.030448686 0.10051378 4278190080
0.22755422 0.030482577 0.10163335 4278190080
0.22173214 0.030498097 0.099569477 4278190080
0.22455662 0.030405767 0.09885218 4278190080
0.21620481 0.029876241 0.10391418 4278190080
0.21634059 0.029748959 0.10677748 4278190080
0.23053521 0.027746219 0.10537962 4278190080
0.2292928 0.027672241 0.10337377 4278190080
0.23098999 0.027775021 0.10614865 4278190080
0.21893394 0.030457923 0.10088726 4278190080
0.21605453 0.029285163 0.10108619 4278190080
0.22743902 0.027573243 0.10061011 4278190080
0.22743566 0.02757312 0.10060627 4278190080
0.21589816 0.027706334 0.098592527 4278190080
0.218753 0.02834698 0.098134346 4278190080
0.21655743 0.027677352 0.098275103 4278190080
0.22161841 0.02889372 0.097966067 4278190080
0.22447173 0.028840782 0.097827487 4278190080
0.22529712 0.027480301 0.09785258 4278190080
0.21869396 0.027586076 0.09729927 4278190080
0.22153375 0.027507504 0.096866407 4278190080
0.22440699 0.027462807 0.097133897 4278190080
0.23046096 0.024876811 0.10518318 4278190080
0.22946775 0.024813926 0.10350334 4278190080
0.23105823 0.024919068 0.10628336 4278190080
0.22743833 0.027549427 0.10060731 4278190080
0.22771232 0.024712499 0.10073098 4278190080
0.21588068 0.027524898 0.098315902 4278190080
0.22735552 0.024694834 0.10022742 4278190080
0.2255687 0.024619777 0.097977526 4278190080
0.218564 0.025907332 0.095397361 4278190080
0.21570104 0.025480071 0.095559679 4278190080
0.22141077 0.025462158 0.095278196 4278190080
0.22348157 0.024525834 0.095221035 4278190080
0.22429779 0.02455931 0.09623263 4278190080
0.21565191 0.02466898 0.094923325 4278190080
0.21847987 0.02458011 0.094278626 4278190080
0.22135271 0.024533814 0.094513409 4278190080
0.23037387 0.021994874 0.10472899 4278190080
0.22972575 0.021953641 0.10362896 4278190080
0.23127468 0.02205975 0.10641093 4278190080
0.22789286 0.021854006 0.10086029 4278190080
0.22727206 0.021816466 0.099846296 4278190080
0.22613125 0.02175267 0.098088391 4278190080
0.22420339 0.021670189 0.095629059 4278190080
0.22394615 0.021660928 0.095336668 4278190080
0.21836494 0.02289176 0.092689283 4278190080
0.21551411 0.023067761 0.092821784 4278190080
0.22120503 0.022122944 0.092586227 4278190080
0.22205867 0.02156247 0.092571072 4278190080
0.21539696 0.021623077 0.091078453 4278190080
0.21823181 0.021540826 0.090571113 4278190080
0.22112963 0.021518994 0.091311134 4278190080
0.24968478 0.032656368 0.084940344 4278190080
0.24819891 0.032108244 0.085040435 4278190080
0.24969463 0.032096047 0.085404828 4278190080
0.25173327 0.032028478 0.08486928 4278190080
0.24392618 0.030180793 0.085345134 4278190080
0.24183942 0.029397422 0.085486233 4278190080
0.24393854 0.029379139 0.085973322 4278190080
0.24684511 0.029367169 0.086917117 4278190080
0.24680632 0.031455841 0.085140884 4278190080
0.24972756 0.029331485 0.087372631 4278190080
0.252588 0.02927467 0.087391034 4278190080
0.25252274 0.03185254 0.084838733 4278190080
0.25543252 0.029201921 0.08707872 4278190080
0.25536218 0.031113485 0.084733978 4278190080
0.25544107 0.028169192 0.087736383 4278190080
0.25310519 0.02642999 0.087936074 4278190080
0.25544575 0.026418095 0.088651031 4278190080
0.243901 0.028932303 0.085406661 4278190080
0.24672523 0.027442429 0.085338965 4278190080
0.24815111 0.02640073 0.085318744 4278190080
0.24959441 0.026404651 0.085988492 4278190080
0.25253147 0.026422745 0.08755511 4278190080
0.25538155 0.025219847 0.087881953 4278190080
0.24954289 0.025624059 0.085287482 4278190080
0.25237852 0.024715899 0.085191056 4278190080
0.2552239 0.02427645 0.085071474 4278190080
0.21411447 0.060885768 0.10538153 4278190080
0.21257836 0.059588235 0.10552029 4278190080
0.21397842 0.059447508 0.10324137 4278190080
0.21496814 0.062388737 0.10526657 4278190080
0.2141131 0.059412565 0.10258901 4278190080
0.21560334 0.062233325 0.1023788 4278190080
0.21547686 0.062095091 0.099527717 4278190080
0.21426605 0.059268013 0.099724457 4278190080
0.21366934 0.059394877 0.096883848 4278190080
0.21369213 0.059167754 0.097459048 4278190080
0.21346903 0.05914494 0.096905828 4278190080
0.21483147 0.061968576 0.096701846 4278190080
0.21354741 0.060211148 0.093986392 4278190080
0.21281026 0.059018765 0.094080538 4278190080
0.2144002 0.061837275 0.093865514 4278190080
0.21341933 0.06071838 0.091104493 4278190080
0.21228699 0.058889553 0.091248885 4278190080
0.21404174 0.061704382 0.091025934 4278190080
0.2132884 0.061081339 0.088229418 4278190080
0.21233381 0.058747459 0.088389456 4278190080
0.21351777 0.061575163 0.088194162 4278190080
0.21311772 0.059475258 0.085451588 4278190080
0.21239983 0.058604978 0.085529134 4278190080
0.21435593 0.061415248 0.085296467 4278190080
0.21105978 0.057815827 0.10281728 4278190080
0.21121526 0.058667686 0.10563222 4278190080
0.20904307 0.056813609 0.10582945 4278190080
0.21002571 0.056650378 0.10292481 4278190080
0.21393457 0.058825608 0.10262623 4278190080
0.2109859 0.05657886 0.10186847 4278190080
0.21236527 0.056456503 0.099954456 4278190080
0.21378073 0.058060613 0.099806875 4278190080
0.21208256 0.056321837 0.097110957 4278190080
0.21150269 0.05619394 0.094281837 4278190080
0.211184 0.056060132 0.09144035 4278190080
0.21123393 0.055918008 0.088580802 4278190080
0.21083009 0.055786047 0.085743129 4278190080
0.20845848 0.053972404 0.10599577 4278190080
0.2100264 0.053795971 0.10306291 4278190080
0.21085633 0.054591551 0.10011938 4278190080
0.21022674 0.053650372 0.10019606 4278190080
0.21071355 0.054372497 0.097273037 4278190080
0.21015371 0.053510949 0.097342491 4278190080
0.21057373 0.054296494 0.094419658 4278190080
0.21009605 0.053371213 0.094488114 4278190080
0.21042384 0.05372731 0.091590807 4278190080
0.21022122 0.053227369 0.09162505 4278190080
0.21028274 0.05358696 0.088740557 4278190080
0.21000235 0.053091288 0.088778436 4278190080
0.21016516 0.054610427 0.085832968 4278190080
0.20920259 0.052968331 0.08596012 4278190080
0.20808735 0.051963031 0.10324733 4278190080
0.20826213 0.053765293 0.10601529 4278190080
0.20591369 0.051175509 0.10625681 4278190080
0.20721871 0.051005021 0.1033366 4278190080
0.20797573 0.050896067 0.10143957 4278190080
0.20833527 0.050838768 0.10042572 4278190080
0.20821029 0.050700467 0.097574249 4278190080
0.20836535 0.050555978 0.094709903 4278190080
0.20869985 0.050407406 0.091836736 4278190080
0.20840879 0.050272949 0.088993594 4278190080
0.20765448 0.050148953 0.086172745 4278190080
0.19945315 0.048441172 0.10384474 4278190080
0.19950348 0.04837741 0.10491618 4278190080
0.19930208 0.048329227 0.10385761 4278190080
0.19991405 0.048456438 0.10668502 4278190080
0.20247573 0.049924582 0.10648727 4278190080
0.2023315 0.049632896 0.10364465 4278190080
0.2053512 0.050962996 0.10629492 4278190080
0.20519553 0.050106 0.10348022 4278190080
0.19931073 0.048245549 0.10099723 4278190080
0.19913319 0.048191935 0.10100862 4278190080
0.2021777 0.048868131 0.1008253 4278190080
0.20503774 0.049143378 0.10067061 4278190080
0.2079197 0.050508644 0.10046194 4278190080
0.19930027 0.048178896 0.10081301 4278190080
0.2021022 0.048064493 0.099640451 4278190080
0.20490402 0.047949955 0.098465428 4278190080
0.20553191 0.047906529 0.097842023 4278190080
0.20777351 0.050121155 0.097623929 4278190080
0.20760433 0.048592936 0.094842255 4278190080
0.20721844 0.047727447 0.094903231 4278190080
0.2074614 0.048362382 0.09199658 4278190080
0.20701088 0.047591098 0.092056185 4278190080
0.20732996 0.048707016 0.0891224 4278190080
0.20647928 0.047462091 0.089224756 4278190080
0.207206 0.049417954 0.086230263 4278190080
0.20587702 0.047334652 0.086396843 4278190080
0.19946533 0.045543239 0.10544988 4278190080
0.19840045 0.045495063 0.10403932 4278190080
0.20028195 0.045593634 0.10680526 4278190080
0.1964253 0.046702489 0.1012146 4278190080
0.19644299 0.045442082 0.10216755 4278190080
0.19915761 0.047512151 0.098176323 4278190080
0.19630298 0.047496364 0.098318256 4278190080
0.20200884 0.047355052 0.098042853 4278190080
0.20486635 0.047506642 0.097894311 4278190080
0.19898924 0.046023458 0.095392622 4278190080
0.19614397 0.046472032 0.095511682 4278190080
0.20112023 0.045010477 0.095336199 4278190080
0.20183937 0.045010731 0.095635056 4278190080
0.20471612 0.044969376 0.095972396 4278190080
0.20586462 0.044903491 0.095106788 4278190080
0.19604447 0.045052696 0.094118044 4278190080
0.19892223 0.045012511 0.094478577 4278190080
0.20529793 0.04477524 0.092277147 4278190080
0.20488696 0.044643488 0.089439847 4278190080
0.20425792 0.044778768 0.08660055 4278190080
0.20428939 0.044552643 0.087355115 4278190080
0.20410636 0.044520099 0.086620547 4278190080
0.19937742 0.042660486 0.10497658 4278190080
0.19887453 0.042630021 0.10415445 4278190080
0.2005403 0.042733479 0.10693088 4278190080
0.19641441 0.042544391 0.10141625 4278190080
0.19634563 0.042754579 0.10140949 4278190080
0.19633837 0.04254302 0.1013578 4278190080
0.20181368 0.044538416 0.09532474 4278190080
0.20464189 0.043237764 0.095247887 4278190080
0.19877818 0.04242193 0.092713416 4278190080
0.19595449 0.0439386 0.092779666 4278190080
0.19947229 0.042052321 0.092696965 4278190080
0.20167102 0.042049527 0.09353888 4278190080
0.20367058 0.041957613 0.092493959 4278190080
0.20451035 0.043577433 0.092374019 4278190080
0.19584799 0.042064074 0.091454923 4278190080
0.19875081 0.042048372 0.092322335 4278190080
0.20437877 0.04391196 0.089500375 4278190080
0.20312791 0.041828863 0.089663036 4278190080
0.20233475 0.041705728 0.086844102 4278190080
0.19937742 0.042660516 0.10497656 4278190080
0.19943233 0.040559713 0.10709079 4278190080
0.19914259 0.039910663 0.10713652 4278190080
0.19887455 0.04263005 0.10415445 4278190080
0.19707258 0.039816312 0.10437956 4278190080
0.20054033 0.042733517 0.10693088 4278190080
0.19633932 0.042443264 0.10142483 4278190080
0.19638781 0.039794616 0.10366112 4278190080
0.19641443 0.042544421 0.10141626 4278190080
0.19633837 0.04254305 0.10135779 4278190080
0.20167102 0.042049557 0.09353891 4278190080
0.2010005 0.03916347 0.092761084 4278190080
0.20158476 0.039168462 0.093100831 4278190080
0.19947216 0.042052358 0.092696965 4278190080
0.20367059 0.041957643 0.092493959 4278190080
0.20372552 0.039102029 0.092629366 4278190080
0.19875081 0.042048402 0.092322409 4278190080
0.19584799 0.042064104 0.091454938 4278190080
0.19863573 0.039139129 0.091301426 4278190080
0.19577107 0.039192092 0.091204643 4278190080
0.20312794 0.041828893 0.089663021 4278190080
0.20241684 0.03899046 0.089835361 4278190080
0.20233478 0.041705757 0.086844116 4278190080
0.20128781 0.038874876 0.087032899 4278190080
0.19640429 0.038810156 0.10446116 4278190080
0.19766562 0.037089463 0.10734612 4278190080
0.19643147 0.037040342 0.10584626 4278190080
0.20154811 0.038234316 0.092778996 4278190080
0.19701214 0.036257967 0.090235069 4278190080
0.19567931 0.037157498 0.090257406 4278190080
0.19855343 0.036261819 0.090943053 4278190080
0.20139425 0.03618544 0.090556547 4278190080
0.20184334 0.036148999 0.09000124 4278190080
0.19560808 0.036235955 0.0892158 4278190080
0.2012842 0.03886975 0.087033316 4278190080
0.20133457 0.036127146 0.089350432 4278190080
0.19941445 0.036062781 0.087261662 4278190080
0.19682756 0.034254 0.10752474 4278190080
0.1964258 0.034237828 0.10703376 4278190080
0.19848365 0.034680791 0.090238512 4278190080
0.20134521 0.035036243 0.09007965 4278190080
0.19549215 0.033325907 0.088178962 4278190080
0.19831719 0.03328824 0.087450132 4278190080
0.19829296 0.033233695 0.087453976 4278190080
0.19842081 0.031363677 0.10758567 4278190080
0.19629793 0.031316105 0.10575499 4278190080
0.19544888 0.032597337 0.08762534 4278190080
0.19794631 0.02837906 0.10488957 4278190080
0.19622707 0.030022724 0.104895 4278190080
0.19914757 0.028451694 0.10685107 4278190080
0.19920516 0.029297117 0.10764685 4278190080
0.19962242 0.028482316 0.10766564 4278190080
0.21347623 0.029258365 0.10694291 4278190080
0.21336834 0.028086489 0.10526151 4278190080
0.21062082 0.028234283 0.10713366 4278190080
0.21620472 0.029876264 0.10391418 4278190080
0.21448505 0.028006131 0.1040897 4278190080
0.2163405 0.029748982 0.1067775 4278190080
0.19652176 0.028270166 0.10210158 4278190080
0.19605795 0.028494261 0.10211344 4278190080
0.21605444 0.029285211 0.10108621 4278190080
0.21457474 0.027863113 0.10122818 4278190080
0.19603097 0.028258678 0.10166796 4278190080
0.21589807 0.027706319 0.098592453 4278190080
0.19901492 0.026724059 0.10491677 4278190080
0.19984967 0.02548179 0.10493547 4278190080
0.20187065 0.025463602 0.10539216 4278190080
0.20202804 0.027735617 0.10758269 4278190080
0.2047185 0.026465157 0.10464711 4278190080
0.20275779 0.025416197 0.10479476 4278190080
0.20488265 0.027741507 0.10744122 4278190080
0.20773056 0.027420139 0.10731586 4278190080
0.2075783 0.026735738 0.10449251 4278190080
0.21060087 0.028217105 0.10713548 4278190080
0.21043016 0.026616264 0.10435741 4278190080
0.21329248 0.027008208 0.10419688 4278190080
0.19893236 0.025444718 0.10380994 4278190080
0.19791597 0.02538437 0.10217208 4278190080
0.20462568 0.025303341 0.10327133 4278190080
0.20744732 0.02520835 0.10249936 4278190080
0.21027698 0.025878904 0.10153676 4278190080
0.20863824 0.025142573 0.10165348 4278190080
0.21315329 0.02696668 0.1013419 4278190080
0.19721287 0.025259186 0.099348903 4278190080
0.19586965 0.026019894 0.099378377 4278190080
0.21021506 0.025060732 0.1006399 4278190080
0.21298312 0.025391156 0.098562472 4278190080
0.21261352 0.024911916 0.098604016 4278190080
0.21588059 0.027524924 0.098315917 4278190080
0.19582079 0.025256548 0.098726362 4278190080
0.21291818 0.024849951 0.097473361 4278190080
0.21570095 0.02548009 0.095559679 4278190080
0.21430871 0.024732621 0.095664732 4278190080
0.21565183 0.024668969 0.094923295 4278190080
0.20183574 0.025064992 0.10485733 4278190080
0.19884156 0.024992246 0.1021452 4278190080
0.20168678 0.02453774 0.10202637 4278190080
0.2045413 0.024541153 0.10188507 4278190080
0.20739488 0.024500232 0.10174587 4278190080
0.19869047 0.024360195 0.099319264 4278190080
0.20152046 0.023150979 0.099237695 4278190080
0.20439051 0.023922896 0.099058457 4278190080
0.20724346 0.023854442 0.098920621 4278190080
0.21009479 0.023707546 0.098786853 4278190080
0.1968832 0.02227111 0.096645787 4278190080
0.19566631 0.022799207 0.096680239 4278190080
0.19854589 0.022270193 0.097306445 4278190080
0.20146225 0.022267701 0.098446652 4278190080
0.20427817 0.022166979 0.097556613 4278190080
0.20707068 0.022043381 0.096192859 4278190080
0.20994537 0.023155151 0.095956974 4278190080
0.20712745 0.022040116 0.096150123 4278190080
0.21282171 0.024248008 0.095761828 4278190080
0.19564861 0.022291292 0.09654972 4278190080
0.20978883 0.021847548 0.093336307 4278190080
0.21265624 0.022899579 0.092971407 4278190080
0.21008657 0.021832367 0.093150057 4278190080
0.21551402 0.023067754 0.092821784 4278190080
0.21258157 0.02172428 0.091979064 4278190080
0.21539687 0.021623066 0.091078438 4278190080
0.23649687 0.022273246 0.11287023 4278190080
0.2364168 0.01939816 0.11255643 4278190080
0.23593104 0.019382356 0.11203822 4278190080
0.23562628 0.022243636 0.11191489 4278190080
0.23346436 0.022162396 0.10938571 4278190080
0.23343258 0.021120291 0.10921373 4278190080
0.23327631 0.02215559 0.10917134 4278190080
0.23374666 0.019290581 0.10928661 4278190080
0.23337226 0.019275576 0.10882974 4278190080
0.2316632 0.019196507 0.10653026 4278190080
0.23127463 0.022059686 0.10641091 4278190080
0.23633619 0.016705211 0.11214785 4278190080
0.23633012 0.016516678 0.11211073 4278190080
0.23413071 0.016427537 0.10940608 4278190080
0.23328517 0.016393697 0.10837539 4278190080
0.23194087 0.016335851 0.10665486 4278190080
0.23625003 0.013641705 0.11179617 4278190080
0.23442623 0.013566629 0.10953006 4278190080
0.23320454 0.013518126 0.1080486 4278190080
0.23217975 0.013476225 0.10678148 4278190080
0.23615465 0.010751739 0.11117452 4278190080
0.23488604 0.010701873 0.10964587 4278190080
0.23310959 0.010628524 0.10743441 4278190080
0.23269522 0.010610223 0.10689456 4278190080
0.23606311 0.0078655211 0.11063029 4278190080
0.23530057 0.0078381067 0.10976385 4278190080
0.23303212 0.0077560809 0.10717449 4278190080
0.23291552 0.0077509102 0.10702192 4278190080
0.23597336 0.0049810736 0.11012171 4278190080
0.23577096 0.004973168 0.10987911 4278190080
0.23301038 0.0070592975 0.10705068 4278190080
0.23337741 0.004886108 0.10713763 4278190080
0.23590672 0.0021191309 0.11007948 4278190080
0.23584667 0.0021170934 0.1100135 4278190080
0.23367371 0.0020250564 0.10726134 4278190080
0.19336459 0.042895321 0.10727805 4278190080
0.19364315 0.039964873 0.10598847 4278190080
0.19338666 0.04004043 0.10741498 4278190080
0.19367149 0.042789407 0.1052573 4278190080
0.19399747 0.042740025 0.10439025 4278190080
0.19481324 0.039867237 0.10448875 4278190080
0.19638783 0.039794616 0.10366112 4278190080
0.19622833 0.042548623 0.10142525 4278190080
0.19633934 0.042443279 0.10142483 4278190080
0.19633839 0.042543057 0.1013578 4278190080
0.1787149 0.042436942 0.092010915 4278190080
0.17581941 0.042459849 0.091291592 4278190080
0.17867202 0.039598204 0.092448249 4278190080
0.17578331 0.039627723 0.091866016 4278190080
0.1815716 0.042376105 0.091945499 4278190080
0.18153906 0.039547507 0.092591986 4278190080
0.18434681 0.041428518 0.090611115 4278190080
0.18373673 0.039411712 0.090738878 4278190080
0.18438035 0.042268485 0.090912327 4278190080
0.18581626 0.042219181 0.090500101 4278190080
0.19294973 0.042084269 0.090680167 4278190080
0.19182101 0.04208383 0.090209886 4278190080
0.19290841 0.041297242 0.090194121 4278190080
0.19402693 0.039179735 0.090241283 4278190080
0.19577108 0.039192099 0.091204673 4278190080
0.195848 0.042064104 0.091454953 4278190080
0.18424962 0.039343897 0.089574143 4278190080
0.18702675 0.039638516 0.087701052 4278190080
0.18605542 0.039218377 0.087769419 4278190080
0.18720441 0.042175803 0.090188727 4278190080
0.18722528 0.039191987 0.087712824 4278190080
0.18995571 0.039214086 0.089274257 4278190080
0.19004494 0.042098194 0.089774698 4278190080
0.1928183 0.039159037 0.089328527 4278190080
0.19364654 0.037171137 0.10735878 4278190080
0.19354779 0.037182327 0.10754529 4278190080
0.19640431 0.038810186 0.10446116 4278190080
0.19643149 0.037040349 0.10584626 4278190080
0.18154812 0.037330054 0.093811691 4278190080
0.18104506 0.036758944 0.093864232 4278190080
0.18154454 0.03675586 0.094005227 4278190080
0.1821422 0.036734194 0.093811095 4278190080
0.178638 0.036767997 0.093064159 4278190080
0.17575188 0.036800046 0.092534497 4278190080
0.18302925 0.036573164 0.090911254 4278190080
0.19567931 0.037157424 0.090257406 4278190080
0.1841362 0.03784452 0.087930992 4278190080
0.18316121 0.0364292 0.088047713 4278190080
0.18981931 0.036523208 0.087713912 4278190080
0.19024116 0.03626959 0.087705389 4278190080
0.19271183 0.036258124 0.088483185 4278190080
0.19560809 0.036235955 0.089215875 4278190080
0.19365045 0.036932584 0.10755226 4278190080
0.19642581 0.034237828 0.10703377 4278190080
0.19562781 0.034281038 0.1075827 4278190080
0.17864394 0.034864165 0.094074517 4278190080
0.17781124 0.033977509 0.094158664 4278190080
0.17864227 0.033975311 0.094453588 4278190080
0.18149169 0.03390744 0.094242439 4278190080
0.18179519 0.033887673 0.093965918 4278190080
0.17572658 0.033978492 0.093326971 4278190080
0.18167382 0.033749364 0.091114804 4278190080
0.18212081 0.03359827 0.088235974 4278190080
0.19263166 0.034439754 0.087675571 4278190080
0.19399397 0.033330593 0.087661892 4278190080
0.19549216 0.033325907 0.088178962 4278190080
0.19629796 0.031316113 0.10575499 4278190080
0.19480218 0.031445257 0.10776068 4278190080
0.17573994 0.032402698 0.094337314 4278190080
0.17574796 0.031202778 0.095062584 4278190080
0.17864768 0.031183969 0.095866248 4278190080
0.1814643 0.033178438 0.094016656 4278190080
0.1806155 0.031060124 0.094161183 4278190080
0.1813101 0.032391801 0.091198459 4278190080
0.18083166 0.030914195 0.091293678 4278190080
0.18123244 0.030857526 0.09030956 4278190080
0.1819451 0.030748021 0.088382602 4278190080
0.19544889 0.032597322 0.08762534 4278190080
0.18193194 0.028926009 0.10565493 4278190080
0.18161318 0.028747363 0.10567936 4278190080
0.18197599 0.028786916 0.10662876 4278190080
0.1848108 0.028704746 0.10612196 4278190080
0.18391792 0.028695386 0.10556787 4278190080
0.18493089 0.029236285 0.10835551 4278190080
0.18362001 0.028843166 0.10843942 4278190080
0.1860036 0.028789368 0.10832404 4278190080
0.19063599 0.02899548 0.10808523 4278190080
0.19060248 0.028658522 0.10755047 4278190080
0.19004875 0.028698239 0.1081287 4278190080
0.19335474 0.029132234 0.1050802 4278190080
0.19216695 0.028509403 0.105169 4278190080
0.19352126 0.030527879 0.10786842 4278190080
0.19622709 0.030022727 0.104895 4278190080
0.18180256 0.029372456 0.10277593 4278190080
0.18039927 0.028633723 0.10288095 4278190080
0.18316488 0.028571369 0.10274735 4278190080
0.19327857 0.028421281 0.10383777 4278190080
0.19605796 0.028494276 0.10211344 4278190080
0.19558457 0.028291319 0.10214669 4278190080
0.17879306 0.028534088 0.10010128 4278190080
0.17878397 0.028529126 0.10010192 4278190080
0.17879367 0.028529704 0.1001174 4278190080
0.18166594 0.029453171 0.099914908 4278190080
0.182421 0.028447105 0.099926159 4278190080
0.19603099 0.028258678 0.10166794 4278190080
0.17580125 0.02858224 0.097383007 4278190080
0.17580813 0.028464591 0.097579509 4278190080
0.17868562 0.030069858 0.097168341 4278190080
0.18151288 0.028724946 0.097093657 4278190080
0.18154149 0.02832588 0.097111568 4278190080
0.18148994 0.028312141 0.09681192 4278190080
0.18096344 0.028197892 0.094282329 4278190080
0.18122487 0.028053375 0.091460854 4278190080
0.18122378 0.028115289 0.091409594 4278190080
0.18123007 0.028050879 0.09141238 4278190080
0.1820759 0.027890736 0.088514343 4278190080
0.17903237 0.026685229 0.1059067 4278190080
0.1786239 0.02610145 0.10881901 4278190080
0.17916737 0.02651876 0.10877202 4278190080
0.17811409 0.025971958 0.10598658 4278190080
0.18205108 0.027971448 0.10855916 4278190080
0.18477836 0.028529013 0.10553336 4278190080
0.18776684 0.028262408 0.10826272 4278190080
0.1876146 0.027574083 0.10543957 4278190080
0.19047573 0.02790782 0.10528181 4278190080
0.17889397 0.026682431 0.1030498 4278190080
0.17774498 0.025839241 0.10314742 4278190080
0.1846129 0.027190236 0.10274249 4278190080
0.18745512 0.026584985 0.10263106 4278190080
0.19032085 0.027094083 0.10246497 4278190080
0.19318135 0.027396921 0.10230877 4278190080
0.17589127 0.026189279 0.10035831 4278190080
0.17592917 0.025786052 0.1013281 4278190080
0.18446307 0.025568312 0.1004034 4278190080
0.18247105 0.025591614 0.10006174 4278190080
0.18733004 0.025517484 0.10054529 4278190080
0.19015603 0.025778828 0.09967269 4278190080
0.18876708 0.02544971 0.099757403 4278190080
0.19301818 0.026164275 0.099512473 4278190080
0.19586965 0.026019864 0.099378377 4278190080
0.18150282 0.028227964 0.097118199 4278190080
0.18157177 0.025595259 0.099768206 4278190080
0.17911623 0.025526216 0.09736672 4278190080
0.19012229 0.025392732 0.09915714 4278190080
0.19293705 0.025290899 0.098244146 4278190080
0.19582081 0.025256556 0.098726392 4278190080
0.17996944 0.025365971 0.094468325 4278190080
0.1812079 0.025239866 0.092419967 4278190080
0.18159552 0.025188249 0.091532692 4278190080
0.18211675 0.025035417 0.088650301 4278190080
0.17614189 0.024896948 0.1061362 4278190080
0.17627741 0.02475485 0.10900037 4278190080
0.17600466 0.024950193 0.10327657 4278190080
0.18443806 0.025376102 0.099974871 4278190080
0.18728921 0.025217282 0.099841401 4278190080
0.1814249 0.024364939 0.097308889 4278190080
0.18427734 0.024271198 0.09717229 4278190080
0.18712966 0.024167646 0.097036108 4278190080
0.18998088 0.023954988 0.096905634 4278190080
0.19283198 0.023794776 0.096772283 4278190080
0.19566633 0.022799132 0.096680269 4278190080
0.18126889 0.023488848 0.094494984 4278190080
0.183585 0.022429965 0.094431594 4278190080
0.18410587 0.0224225 0.094492927 4278190080
0.18697691 0.022375539 0.094715193 4278190080
0.18986411 0.022343507 0.095244318 4278190080
0.19275665 0.022317713 0.09590359 4278190080
0.19564863 0.022291292 0.096549734 4278190080
0.18205206 0.022323478 0.091648683 4278190080
0.18209815 0.022181397 0.08878924 4278190080
0.27423024 -0.019655773 0.1435356 4278190080
0.27422765 -0.019888556 0.14359345 4278190080
0.27417323 -0.019889617 0.14354973 4278190080
0.27649969 -0.01708767 0.14329906 4278190080
0.2771498 -0.017088493 0.14354761 4278190080
0.27714339 -0.019891782 0.1447192 4278190080
0.27133361 -0.017067371 0.14159985 4278190080
0.27127296 -0.019923495 0.14167862 4278190080
0.27005145 -0.019937687 0.14089198 4278190080
0.27004901 -0.017083192 0.14075412 4278190080
0.27426207 -0.01705794 0.14298718 4278190080
0.26838449 -0.01709697 0.13979568 4278190080
0.26832372 -0.019953018 0.1398759 4278190080
0.26641655 -0.019996759 0.13821073 4278190080
0.26600736 -0.017133104 0.1380925 4278190080
0.26541519 -0.017145986 0.13758977 4278190080
0.26533344 -0.020022767 0.137242 4278190080
0.26278198 -0.020055868 0.13552944 4278190080
0.26255196 -0.017196247 0.13540252 4278190080
0.26244146 -0.017199574 0.13529067 4278190080
0.26236689 -0.020069331 0.13508753 4278190080
0.25974834 -0.020128481 0.13281913 4278190080
0.25955454 -0.017269675 0.1326905 4278190080
0.25944719 -0.017272975 0.13257982 4278190080
0.25937492 -0.020140475 0.13242353 4278190080
0.25693503 -0.020206066 0.13009815 4278190080
0.25677335 -0.017347988 0.12996791 4278190080
0.25644112 -0.017358229 0.12962495 4278190080
0.25636938 -0.020225154 0.12948056 4278190080
0.27418041 -0.022731608 0.14394172 4278190080
0.27388424 -0.022737475 0.14370178 4278190080
0.27709961 -0.022731366 0.14513876 4278190080
0.27120635 -0.022785213 0.14164101 4278190080
0.27021873 -0.022795837 0.14102198 4278190080
0.26825324 -0.022818705 0.13975607 4278190080
0.26671302 -0.022857822 0.13833447 4278190080
0.26526171 -0.022889694 0.13709624 4278190080
0.26308784 -0.022917129 0.13565274 4278190080
0.26229164 -0.022939511 0.13487481 4278190080
0.26030931 -0.02299552 0.13293 4278190080
0.25928161 -0.023028443 0.13184278 4278190080
0.25742173 -0.023071412 0.13021265 4278190080
0.25627169 -0.023117403 0.12881149 4278190080
0.2741318 -0.025575925 0.14426486 4278190080
0.2736398 -0.025586413 0.14385159 4278190080
0.27706665 -0.025560392 0.14577805 4278190080
0.27112249 -0.025664069 0.14124985 4278190080
0.27092475 -0.025666188 0.14112581 4278190080
0.26816443 -0.025702361 0.13926579 4278190080
0.26728615 -0.02572516 0.13844471 4278190080
0.26519322 -0.025753377 0.13701908 4278190080
0.26355153 -0.025782023 0.13576825 4278190080
0.26220343 -0.025822783 0.13439204 4278190080
0.26081547 -0.02586136 0.13304351 4278190080
0.25919577 -0.025909232 0.13141198 4278190080
0.25798512 -0.025938546 0.13032337 4278190080
0.25619999 -0.025984362 0.12866615 4278190080
0.27406824 -0.028434735 0.1442865 4278190080
0.27371076 -0.028442366 0.14398621 4278190080
0.27703843 -0.028384812 0.14651062 4278190080
0.27108189 -0.02736323 0.14120017 4278190080
0.27118295 -0.028526358 0.14125137 4278190080
0.26807284 -0.028169245 0.13852401 4278190080
0.26819521 -0.02860003 0.13853882 4278190080
0.27105421 -0.028527729 0.14117162 4278190080
0.2651183 -0.028623324 0.13681041 4278190080
0.26410124 -0.028648777 0.13587962 4278190080
0.26805919 -0.028601974 0.13844405 4278190080
0.26211494 -0.02870596 0.13390993 4278190080
0.26124251 -0.028725335 0.13316087 4278190080
0.25910163 -0.028798113 0.13081111 4278190080
0.25864935 -0.028807897 0.13042922 4278190080
0.2561129 -0.028866315 0.12820967 4278190080
0.27400666 -0.031291422 0.14434807 4278190080
0.27378565 -0.031298198 0.1441205 4278190080
0.27667671 -0.031222565 0.14683779 4278190080
0.27702722 -0.029348353 0.14672984 4278190080
0.27115875 -0.031379957 0.14139055 4278190080
0.2767123 -0.031239318 0.14110892 4278190080
0.27655017 -0.03150152 0.1411296 4278190080
0.27671272 -0.031499472 0.14123799 4278190080
0.27099591 -0.031381194 0.14129902 4278190080
0.26859742 -0.031463284 0.13865729 4278190080
0.27670109 -0.031510811 0.14100333 4278190080
0.26501483 -0.031404283 0.13596772 4278190080
0.26505321 -0.031524356 0.13597165 4278190080
0.26798385 -0.031472247 0.13822459 4278190080
0.26204193 -0.03157394 0.1337374 4278190080
0.26152587 -0.031585846 0.13328518 4278190080
0.2650103 -0.031525459 0.13593177 4278190080
0.25903606 -0.031658728 0.13079332 4278190080
0.2587992 -0.031665493 0.13055997 4278190080
0.25605974 -0.031744733 0.1278355 4278190080
0.25603297 -0.031591848 0.12782942 4278190080
0.27395293 -0.034140941 0.14456321 4278190080
0.27367273 -0.034150038 0.14426412 4278190080
0.27612168 -0.034064189 0.14700277 4278190080
0.27098352 -0.032233533 0.14144047 4278190080
0.27095243 -0.034220435 0.14172654 4278190080
0.27075741 -0.034225326 0.14154799 4278190080
0.27583787 -0.034339849 0.14130212 4278190080
0.27668074 -0.034327447 0.14189802 4278190080
0.26890987 -0.034324709 0.13878031 4278190080
0.27659196 -0.034414154 0.14010589 4278190080
0.26790753 -0.034343686 0.1379865 4278190080
0.26522762 -0.034382686 0.13610123 4278190080
0.26197171 -0.033900682 0.13337515 4278190080
0.26207191 -0.034452554 0.13339691 4278190080
0.26494306 -0.034388002 0.13587742 4278190080
0.25900489 -0.032618616 0.13059603 4278190080
0.25944167 -0.034534369 0.1306669 4278190080
0.26195353 -0.034456979 0.13325931 4278190080
0.25893623 -0.034553107 0.13008033 4278190080
0.25725132 -0.034626029 0.1279159 4278190080
0.27389553 -0.036993846 0.14470805 4278190080
0.2736522 -0.037003994 0.14440317 4278190080
0.27602819 -0.036916476 0.14714526 4278190080
0.27088961 -0.036884326 0.14167015 4278190080
0.27091077 -0.037083145 0.14167865 4278190080
0.27549449 -0.037186492 0.14145683 4278190080
0.27663377 -0.03717025 0.14225142 4278190080
0.27088454 -0.037083697 0.1416574 4278190080
0.26895151 -0.03718004 0.13891639 4278190080
0.2764577 -0.037342209 0.13869722 4278190080
0.26783434 -0.037212089 0.13781129 4278190080
0.26571766 -0.037248131 0.13621561 4278190080
0.26486191 -0.037264101 0.13554238 4278190080
0.26279378 -0.037323222 0.13349997 4278190080
0.26184186 -0.037362952 0.13230695 4278190080
0.26066995 -0.037416428 0.13074555 4278190080
0.25877124 -0.037339877 0.12797199 4278190080
0.25887918 -0.037517134 0.12797518 4278190080
0.27810591 -0.01794436 0.14404185 4278190080
0.28006917 -0.017088134 0.14474691 4278190080
0.27901015 -0.017003221 0.14603476 4278190080
0.2789464 -0.019856203 0.14617576 4278190080
0.27714333 -0.019891774 0.14471917 4278190080
0.2771498 -0.017088486 0.14354758 4278190080
0.27746046 -0.017109325 0.14325257 4278190080
0.27885491 -0.019995186 0.14332308 4278190080
0.27999386 -0.019958613 0.14452927 4278190080
0.28097939 -0.019902058 0.14607738 4278190080
0.28090796 -0.017046032 0.14594282 4278190080
0.27984905 -0.020100079 0.14160435 4278190080
0.2795774 -0.017298089 0.14029296 4278190080
0.2798281 -0.018287379 0.14032836 4278190080
0.28039196 -0.017316485 0.1402535 4278190080
0.28274226 -0.017328456 0.14097048 4278190080
0.28269166 -0.020174777 0.14125212 4278190080
0.28562504 -0.017363822 0.14143153 4278190080
0.28557929 -0.020205339 0.14181231 4278190080
0.27984008 -0.017311944 0.14011957 4278190080
0.27991557 -0.022831844 0.14425345 4278190080
0.27937633 -0.022861321 0.143436 4278190080
0.27890685 -0.02270969 0.14631574 4278190080
0.27709955 -0.022731358 0.14513873 4278190080
0.28117964 -0.022760961 0.1462058 4278190080
0.27983275 -0.022912804 0.14257936 4278190080
0.28263801 -0.023023883 0.14147498 4278190080
0.28552946 -0.023050781 0.14211096 4278190080
0.27984452 -0.025698077 0.14412297 4278190080
0.27948254 -0.025718156 0.1435688 4278190080
0.27826965 -0.025549773 0.14648466 4278190080
0.27706659 -0.025560381 0.14577799 4278190080
0.28182599 -0.025629925 0.14631282 4278190080
0.27978548 -0.025755778 0.14293031 4278190080
0.28256139 -0.025895683 0.14122976 4278190080
0.2854636 -0.025912002 0.14208467 4278190080
0.27979767 -0.028540583 0.14448203 4278190080
0.27918908 -0.028565869 0.14372103 4278190080
0.2773017 -0.028382301 0.14666952 4278190080
0.27703837 -0.028384827 0.14651047 4278190080
0.28187764 -0.028485438 0.14644842 4278190080
0.27969682 -0.028639216 0.14244275 4278190080
0.28249958 -0.028752822 0.141286 4278190080
0.28537706 -0.028793419 0.1416385 4278190080
0.27702722 -0.029349057 0.14672984 4278190080
0.27975306 -0.031380795 0.14488386 4278190080
0.27871442 -0.031409293 0.14388199 4278190080
0.28152838 -0.03133167 0.14660336 4278190080
0.27957731 -0.030711358 0.14094155 4278190080
0.2767123 -0.031239437 0.14110892 4278190080
0.27671266 -0.031499464 0.14123793 4278190080
0.28244457 -0.030083962 0.14076973 4278190080
0.28413272 -0.03167247 0.14076303 4278190080
0.28527877 -0.031685933 0.14095844 4278190080
0.27670109 -0.031510789 0.14100339 4278190080
0.27954486 -0.031584114 0.14067997 4278190080
0.282386 -0.031660214 0.14029889 4278190080
0.27822787 -0.034252718 0.14404373 4278190080
0.27972516 -0.034205034 0.14562146 4278190080
0.2808491 -0.034170803 0.14677386 4278190080
0.27668068 -0.034327433 0.14189799 4278190080
0.28525427 -0.03229326 0.14073758 4278190080
0.279423 -0.034499981 0.13952301 4278190080
0.27659196 -0.034414131 0.14010601 4278190080
0.28226069 -0.034579679 0.13906793 4278190080
0.28515366 -0.034604959 0.13973664 4278190080
0.27789795 -0.037099648 0.14419769 4278190080
0.2796858 -0.037040323 0.14613019 4278190080
0.28047404 -0.037016727 0.14693008 4278190080
0.27663371 -0.037170243 0.14225139 4278190080
0.2793189 -0.037398592 0.13872297 4278190080
0.27645764 -0.037342187 0.13869734 4278190080
0.28218681 -0.03600309 0.1382048 4278190080
0.28057149 -0.037442088 0.13835393 4278190080
0.2850346 -0.036327846 0.13807951 4278190080
0.28211099 -0.03752277 0.13734744 4278190080
0.28495121 -0.037599623 0.1369506 4278190080
0.25644118 -0.017358232 0.12962504 4278190080
0.25636944 -0.020225143 0.12948065 4278190080
0.25441533 -0.020290317 0.12736304 4278190080
0.25411519 -0.017429139 0.12723948 4278190080
0.25627181 -0.023117384 0.12881164 4278190080
0.25506258 -0.023159271 0.12746976 4278190080
0.25619999 -0.025984369 0.12866621 4278190080
0.25508592 -0.026014237 0.12760668 4278190080
0.23833768 -0.027503615 0.14855343 4278190080
0.23713805 -0.025813488 0.14853114 4278190080
0.2370739 -0.027505711 0.14799497 4278190080
0.2561129 -0.0288663 0.12820973 4278190080
0.25565797 -0.028881485 0.12771694 4278190080
0.2385596 -0.030362949 0.14868063 4278190080
0.23701815 -0.030356942 0.14817339 4278190080
0.25603297 -0.031592369 0.12782945 4278190080
0.23702501 -0.031411014 0.14880726 4278190080
0.23296067 -0.055925995 0.15019423 4278190080
0.23312198 -0.058783915 0.15032449 4278190080
0.23304261 -0.056068882 0.14733317 4278190080
0.23265493 -0.058914479 0.14748994 4278190080
0.23335277 -0.058212969 0.1445576 4278190080
0.23348472 -0.056128286 0.14631078 4278190080
0.23305793 -0.059064597 0.14461333 4278190080
0.23466566 -0.056246523 0.14439762 4278190080
0.23331329 -0.059092451 0.144153 4278190080
0.23605414 -0.058944251 0.14159527 4278190080
0.23563211 -0.059263695 0.14163157 4278190080
0.23620516 -0.056322236 0.14349136 4278190080
0.23603451 -0.05928582 0.14134818 4278190080
0.23359349 -0.059992772 0.15035963 4278190080
0.23347969 -0.061726697 0.14881781 4278190080
0.23295817 -0.061775725 0.14761326 4278190080
0.23422647 -0.061663214 0.15040904 4278190080
0.2325505 -0.061907522 0.14477593 4278190080
0.23315266 -0.062046323 0.14221093 4278190080
0.23329824 -0.062065456 0.14188257 4278190080
0.23585263 -0.062260441 0.13897687 4278190080
0.23339021 -0.063209251 0.14766124 4278190080
0.23392162 -0.064651534 0.14770466 4278190080
0.23537005 -0.064543113 0.15049174 4278190080
0.23328257 -0.064715922 0.14613909 4278190080
0.23280662 -0.064767376 0.14490148 4278190080
0.23312409 -0.062691465 0.14192149 4278190080
0.23267856 -0.064905524 0.14205056 4278190080
0.23300508 -0.064987011 0.14053294 4278190080
0.23584688 -0.062363006 0.13890693 4278190080
0.23351705 -0.065065466 0.13915277 4278190080
0.23567429 -0.06523104 0.1366798 4278190080
0.2363189 -0.066385821 0.15053391 4278190080
0.23623985 -0.067475326 0.14940906 4278190080
0.2351297 -0.067533135 0.14778432 4278190080
0.23318489 -0.066528454 0.14496803 4278190080
0.23352908 -0.067638114 0.14500466 4278190080
0.23309332 -0.06769757 0.14362147 4278190080
0.23271842 -0.06776081 0.14218667 4278190080
0.23290755 -0.067879133 0.13986742 4278190080
0.23302364 -0.067908742 0.13931477 4278190080
0.23563774 -0.065874465 0.13622305 4278190080
0.2337482 -0.06806612 0.13642251 4278190080
0.2355125 -0.068186037 0.13471481 4278190080
0.23611064 -0.069851041 0.14784789 4278190080
0.23607701 -0.0704313 0.14742339 4278190080
0.23443133 -0.070512794 0.1450991 4278190080
0.23299086 -0.06929107 0.1422472 4278190080
0.2332999 -0.070628308 0.14229667 4278190080
0.23284996 -0.06941966 0.13939649 4278190080
0.23274717 -0.070756882 0.13946617 4278190080
0.23285024 -0.070731893 0.14001399 4278190080
0.23276684 -0.070813403 0.13832965 4278190080
0.23290211 -0.070901401 0.1366016 4278190080
0.23541135 -0.070236929 0.13358128 4278190080
0.23448323 -0.071078092 0.13366792 4278190080
0.23536915 -0.071122885 0.1331237 4278190080
0.23593119 -0.073370479 0.14578286 4278190080
0.23551066 -0.073391505 0.14518493 4278190080
0.23417208 -0.073502369 0.14239243 4278190080
0.23281801 -0.071005985 0.13947472 4278190080
0.23357828 -0.073629975 0.13956401 4278190080
0.23274358 -0.073752202 0.13674733 4278190080
0.23365116 -0.073913753 0.13384619 4278190080
0.23524113 -0.074044712 0.13184121 4278190080
0.23589015 -0.073922001 0.14519179 4278190080
0.23573756 -0.076356545 0.14317429 4278190080
0.23522027 -0.076380409 0.14247981 4278190080
0.2343522 -0.076501861 0.13966459 4278190080
0.23354918 -0.076624788 0.13684633 4278190080
0.23360942 -0.076767221 0.13398623 4278190080
0.23516835 -0.076912634 0.13167608 4278190080
0.21997868 0.041103244 0.11750417 4278190080
0.21848597 0.040038437 0.11762936 4278190080
0.21713194 0.040098786 0.11829909 4278190080
0.22007382 0.04291676 0.11862435 4278190080
0.21726343 0.043024104 0.11965188 4278190080
0.22207832 0.042811859 0.11731761 4278190080
0.21991414 0.039963942 0.1167024 4278190080
0.22268732 0.040733092 0.11452412 4278190080
0.22223821 0.039812822 0.11459077 4278190080
0.22280842 0.042736653 0.1160923 4278190080
0.22402704 0.042626865 0.11436633 4278190080
0.23701496 0.042357214 0.11420862 4278190080
0.23695935 0.039506085 0.11438963 4278190080
0.23644856 0.039492399 0.11390398 4278190080
0.23656149 0.042344227 0.11376049 4278190080
0.2226094 0.039745379 0.11337588 4278190080
0.22333102 0.039647188 0.11168084 4278190080
0.22443673 0.042476621 0.11148938 4278190080
0.23400849 0.042271823 0.11125002 4278190080
0.23394215 0.039410241 0.11121465 4278190080
0.23389529 0.039408959 0.11117005 4278190080
0.23374893 0.042266663 0.11103909 4278190080
0.22528276 0.041615278 0.10862527 4278190080
0.22534211 0.042360388 0.10950276 4278190080
0.22269125 0.039520591 0.10885458 4278190080
0.2270254 0.042277299 0.10850713 4278190080
0.23158489 0.042174418 0.1082866 4278190080
0.23190108 0.039312895 0.10840928 4278190080
0.22511244 0.040028259 0.1058465 4278190080
0.22442481 0.039340451 0.10591359 4278190080
0.22812025 0.042222857 0.10785157 4278190080
0.22797176 0.040277351 0.10569295 4278190080
0.23038973 0.039205983 0.10562532 4278190080
0.23082639 0.039217982 0.10604709 4278190080
0.2309512 0.042136718 0.10726375 4278190080
0.21708359 0.039151877 0.11774165 4278190080
0.21976565 0.037400864 0.11482989 4278190080
0.2193173 0.037024207 0.11487029 4278190080
0.21697417 0.037147783 0.11641698 4278190080
0.23688552 0.036637016 0.11420247 4278190080
0.23671038 0.036632001 0.1140295 4278190080
0.21973038 0.03698742 0.11429384 4278190080
0.2225025 0.038431864 0.11178068 4278190080
0.22151962 0.036833543 0.11190664 4278190080
0.23393126 0.038982414 0.11118891 4278190080
0.23413835 0.03654898 0.11129647 4278190080
0.2223812 0.039277025 0.10888172 4278190080
0.22147314 0.036693588 0.10905173 4278190080
0.23386315 0.036536079 0.11092217 4278190080
0.23226811 0.036450189 0.1085298 4278190080
0.22220717 0.037508473 0.106112 4278190080
0.22140466 0.036554106 0.1061979 4278190080
0.23074821 0.036404684 0.1057431 4278190080
0.23075032 0.036343381 0.10574599 4278190080
0.21687664 0.035751589 0.11505245 4278190080
0.2368506 0.035341032 0.11408503 4278190080
0.21958385 0.035250656 0.11207894 4278190080
0.21823633 0.034053165 0.1122034 4278190080
0.21675621 0.034138013 0.11331738 4278190080
0.23680639 0.033762831 0.11390691 4278190080
0.23441976 0.033688288 0.11142106 4278190080
0.21945195 0.033918656 0.10997409 4278190080
0.21993342 0.033873923 0.10926426 4278190080
0.23378246 0.033660471 0.11059687 4278190080
0.23236009 0.033593744 0.1086634 4278190080
0.21974328 0.033737212 0.10641635 4278190080
0.2307319 0.033489414 0.10588495 4278190080
0.21668766 0.033242684 0.11231921 4278190080
0.2367247 0.030886512 0.1135623 4278190080
0.2346952 0.030827872 0.11154585 4278190080
0.21941079 0.033527017 0.10930688 4278190080
0.21652216 0.031889886 0.10952885 4278190080
0.23370489 0.030787978 0.1103332 4278190080
0.2325357 0.030735521 0.10879312 4278190080
0.21645111 0.031043286 0.10845754 4278190080
0.21926571 0.033190943 0.10646645 4278190080
0.21825887 0.030916402 0.10662612 4278190080
0.23091529 0.030631021 0.10601423 4278190080
0.23665105 0.028017765 0.11337836 4278190080
0.2349942 0.027966781 0.11166941 4278190080
0.23362581 0.027913943 0.1100397 4278190080
0.23271753 0.027877077 0.10892238 4278190080
0.21634059 0.029748959 0.10677747 4278190080
0.23098995 0.027775014 0.10614865 4278190080
0.23657942 0.025150871 0.11323398 4278190080
0.23523891 0.025106879 0.1117956 4278190080
0.2335481 0.025041156 0.10977297 4278190080
0.23295715 0.025017306 0.10904879 4278190080
0.2310582 0.024919065 0.10628334 4278190080
0.23649687 0.022273306 0.1128702 4278190080
0.2356263 0.022243695 0.11191489 4278190080
0.23346433 0.022162456 0.10938568 4278190080
0.23327634 0.022155654 0.10917132 4278190080
0.23127463 0.022059746 0.10641091 4278190080
0.2459985 0.042578913 0.12236831 4278190080
0.24595957 0.039744012 0.12288515 4278190080
0.24408248 0.039743409 0.12210618 4278190080
0.24495341 0.042578138 0.12192598 4278190080
0.24775277 0.039801642 0.12478571 4278190080
0.24895991 0.042620435 0.12442024 4278190080
0.24896321 0.04237666 0.12460127 4278190080
0.24913256 0.042624876 0.12458085 4278190080
0.24301985 0.042520564 0.11996932 4278190080
0.24298534 0.039690021 0.12057582 4278190080
0.24179319 0.039654005 0.11935987 4278190080
0.24170479 0.042510379 0.11922602 4278190080
0.24003038 0.042451635 0.11735211 4278190080
0.23996335 0.039589293 0.11730151 4278190080
0.23939012 0.039567146 0.11661883 4278190080
0.23923433 0.042425033 0.11648834 4278190080
0.23701493 0.042357206 0.11420853 4278190080
0.23695934 0.039506093 0.11438957 4278190080
0.24594657 0.036934339 0.12392589 4278190080
0.24340187 0.036904298 0.12227733 4278190080
0.24672057 0.036970451 0.12497382 4278190080
0.24297523 0.036883138 0.12167458 4278190080
0.24154672 0.03680506 0.11951001 4278190080
0.2398991 0.036729597 0.11730821 4278190080
0.23951457 0.036709815 0.116751 4278190080
0.23688549 0.036637008 0.11420237 4278190080
0.24592252 0.034113999 0.12474383 4278190080
0.24372166 0.034042712 0.1223999 4278190080
0.24618757 0.034128152 0.12513626 4278190080
0.2428942 0.034007203 0.12134281 4278190080
0.24165314 0.033948302 0.11964287 4278190080
0.2398234 0.033858836 0.11708298 4278190080
0.23967347 0.033851907 0.11688142 4278190080
0.23701787 0.033770707 0.11415267 4278190080
0.23685057 0.035341702 0.11408499 4278190080
0.23680638 0.033762831 0.1139068 4278190080
0.24589987 0.032018527 0.12525257 4278190080
0.24580431 0.031282425 0.12529284 4278190080
0.24409489 0.031180076 0.12251991 4278190080
0.2428083 0.03112663 0.12091194 4278190080
