# .PCD v0.7 - Point Cloud Data file format
VERSION 0.7
FIELDS x y z rgba label
SIZE 4 4 4 4 4
TYPE F F F U U
COUNT 1 1 1 1 1
WIDTH 258
HEIGHT 1
VIEWPOINT 0 0 0 1 0 0 0
POINTS 258
DATA ascii
0.016610105 -0.062857121 0.15428571 4278190080 19544
0.017142896 -0.062857121 0.15288934 4278190080 19546
0.017870791 -0.062857121 0.15142858 4278190080 19568
0.01551242 -0.062857121 0.15714285 4278190080 19547
0.017142896 -0.063683785 0.15428571 4278190080 19545
0.011428609 -0.058865324 0.15999998 4278190080 2242
0.011428609 -0.058865353 0.16 4278190080 2449
0.017142896 -0.061818186 0.15142858 4278190080 19551
0.014285753 -0.061197922 0.15714285 4278190080 19537
0.010127236 -0.057142857 0.15999998 4278190080 2239
0.010127217 -0.057142857 0.16 4278190080 2448
0.0085714664 -0.054285713 0.15801507 4278190080 2425
0.013425713 -0.05999998 0.15714285 4278190080 19536
0.013425763 -0.059999999 0.15714285 4278190080 2474
0.014285753 -0.059684422 0.15428571 4278190080 2472
0.015991312 -0.05999998 0.15142858 4278190080 19550
0.015991366 -0.059999999 0.15142858 4278190080 2495
0.014539823 -0.05999998 0.15428571 4278190080 19553
0.014539886 -0.059999999 0.15428571 4278190080 2496
0.011085894 -0.057142857 0.15714285 4278190080 2445
0.016766842 -0.057142857 0.14571428 4278190080 2489
0.011428609 -0.057567187 0.15714285 4278190080 2446
0.014285753 -0.05999998 0.15481858 4278190080 19538
0.014285753 -0.059999999 0.15481871 4278190080 2473
0.017142896 -0.059735421 0.14857143 4278190080 2493
0.017142896 -0.05999998 0.14895266 4278190080 19552
0.017142896 -0.059999999 0.14895277 4278190080 2494
0.017142896 -0.057707679 0.14571428 4278190080 2490
0.017362669 -0.05999998 0.14857143 4278190080 19572
0.017362731 -0.059999999 0.14857143 4278190080 2508
0.017142896 -0.057142857 0.14493571 4278190080 2491
0.011428609 -0.055775441 0.15428571 4278190080 2451
0.013789206 -0.057142857 0.15142858 4278190080 2468
0.014285753 -0.057142857 0.15040576 4278190080 2470
0.015273789 -0.057142857 0.14857143 4278190080 2492
0.014285753 -0.057802793 0.15142858 4278190080 2469
0.012486544 -0.057142857 0.15428571 4278190080 2471
0.0085714664 -0.053733137 0.15714285 4278190080 2430
0.0090054097 -0.054285713 0.15714285 4278190080 2453
0.0067669791 -0.051428571 0.15714285 4278190080 2429
0.011428609 -0.057142857 0.15636669 4278190080 2447
0.0085714664 -0.051428571 0.15315823 4278190080 2428
0.011428609 -0.05408366 0.15142858 4278190080 2458
0.013118306 -0.054285713 0.14857143 4278190080 2476
0.011572758 -0.054285713 0.15142858 4278190080 2479
0.011428609 -0.054285713 0.1517065 4278190080 2452
0.0080249365 -0.051428571 0.15428571 4278190080 2426
0.0085714664 -0.052128486 0.15428571 4278190080 2427
0.014285753 -0.053782921 0.14571428 4278190080 2484
0.014285753 -0.054285713 0.14635751 4278190080 2478
0.014671559 -0.054285713 0.14571428 4278190080 2500
0.0057143238 -0.04857143 0.15422671 4278190080 2407
0.0057143238 -0.048606973 0.15428571 4278190080 2406
0.0056866636 -0.04857143 0.15428571 4278190080 2405
0.010246981 -0.054285713 0.15428571 4278190080 2450
0.014285753 -0.055862911 0.14857143 4278190080 2477
0.011428609 -0.051428571 0.14749144 4278190080 2456
0.012469838 -0.051428571 0.14571428 4278190080 2483
0.010872785 -0.051428571 0.14857143 4278190080 2454
0.0057143238 -0.046495341 0.15142858 4278190080 2412
0.007281349 -0.04857143 0.15142858 4278190080 2431
0.0050498093 -0.045714285 0.15142858 4278190080 2411
0.0085714664 -0.050215364 0.15142858 4278190080 2432
0.011428609 -0.052133501 0.14857143 4278190080 2455
0.014068771 -0.051428571 0.14285715 4278190080 2480
0.0095218504 -0.051428571 0.15142858 4278190080 2457
0.014285753 -0.051428571 0.14250341 4278190080 2482
0.014285753 -0.051721726 0.14285715 4278190080 2481
0.014285753 -0.049167965 0.14 4278190080 2485
0.014285753 -0.04916802 0.14000002 4278190080 2723
0.002857181 -0.042857144 0.15107107 4278190080 2390
0.0057143238 -0.04429844 0.14857143 4278190080 2416
0.010553087 -0.04857143 0.14571428 4278190080 2459
0.0068845414 -0.045714285 0.14857143 4278190080 2437
0.0044008852 -0.042857144 0.14857143 4278190080 2415
0.0085714664 -0.048043247 0.14857143 4278190080 2438
0.00896361 -0.04857143 0.14857143 4278190080 2462
0.011428609 -0.049893245 0.14571428 4278190080 2460
0.002857181 -0.041284148 0.14857143 4278190080 2397
0.0085714664 -0.04857143 0.14918666 4278190080 2433
0.0057143238 -0.045714285 0.15042143 4278190080 2413
0.010089481 -0.045714285 0.14285715 4278190080 2463
0.011428609 -0.045714285 0.14063251 4278190080 2465
0.011831984 -0.045714285 0.14000002 4278190080 2728
0.011832043 -0.045714285 0.14 4278190080 2488
0.0062580379 -0.042857144 0.14571428 4278190080 2442
0.0085714664 -0.045714285 0.14570995 4278190080 2436
0.008569032 -0.045714285 0.14571428 4278190080 2434
0.0085714664 -0.045717433 0.14571428 4278190080 2435
0.0057143238 -0.042857144 0.14656566 4278190080 2417
0.011428609 -0.047547005 0.14285715 4278190080 2464
0.013548288 -0.045714285 0.13714288 4278190080 2725
0.012179499 -0.04857143 0.14285715 4278190080 2487
0.011428609 -0.04857143 0.14413418 4278190080 2461
0.014285753 -0.046665385 0.13714288 4278190080 2726
0.014285753 -0.045714285 0.13605191 4278190080 2727
0.002857181 -0.039999999 0.14660428 4278190080 2398
0.002857181 -0.040000018 0.14660439 4278190080 2516
0.013852823 -0.04857143 0.14000002 4278190080 2722
0.013852863 -0.04857143 0.14 4278190080 2486
0.0096098268 -0.042857144 0.14000002 4278190080 2716
0.0096098678 -0.042857144 0.14 4278190080 2467
0.0085714664 -0.042857144 0.14187995 4278190080 2441
0.011428609 -0.042898964 0.13714288 4278190080 2714
0.0079861861 -0.042857144 0.14285715 4278190080 2439
0.0085714664 -0.043583408 0.14285715 4278190080 2440
0.0034703405 -0.040000018 0.14571428 4278190080 2532
0.0034702709 -0.039999999 0.14571428 4278190080 2421
0.011428609 -0.04520214 0.14 4278190080 2466
0.011428609 -0.045202214 0.14000002 4278190080 2717
0.002857181 -0.039256506 0.14571428 4278190080 2515
0.0057143238 -0.042254798 0.14571428 4278190080 2422
0.013346856 -0.042857144 0.13428573 4278190080 2729
0.0085714664 -0.039999999 0.13830282 4278190080 2712
0.0085714664 -0.040000018 0.13830292 4278190080 2827
0.0075643635 -0.039999999 0.14000002 4278190080 2710
0.0075644124 -0.039999999 0.14 4278190080 2444
0.0075644213 -0.040000018 0.14000002 4278190080 2828
0.0075644702 -0.040000018 0.14 4278190080 2533
0.011364059 -0.039999999 0.13428573 4278190080 2718
0.011364117 -0.040000018 0.13428573 4278190080 2851
0.011428609 -0.039999999 0.13418595 4278190080 2720
0.011428609 -0.040000018 0.13418604 4278190080 2850
0.011428609 -0.040083233 0.13428573 4278190080 2719
0.0085714664 -0.041349702 0.14 4278190080 2443
0.0085714664 -0.041349769 0.14000002 4278190080 2711
0.002857181 -0.037142877 0.14281127 4278190080 2513
0.0057143238 -0.039999999 0.14243177 4278190080 2420
0.0057143238 -0.040000018 0.14243186 4278190080 2528
0.002857181 -0.037179634 0.14285715 4278190080 2512
0.0028207269 -0.037142877 0.14285715 4278190080 2511
0.0053987019 -0.039999999 0.14285715 4278190080 2418
0.0053987666 -0.040000018 0.14285715 4278190080 2531
0.0057143238 -0.040356591 0.14285715 4278190080 2419
0.011397959 -0.042857144 0.13714288 4278190080 2713
0.011428609 -0.042857144 0.13709489 4278190080 2715
0.0042852387 -0.034285732 0.13714288 4278190080 2806
0.0057143238 -0.035654172 0.13714288 4278190080 2807
0.0085714664 -0.036557849 0.13428573 4278190080 2833
0.0085714664 -0.037142877 0.13488963 4278190080 2826
0.0069274683 -0.037142877 0.13714288 4278190080 2824
0.0090233786 -0.037142877 0.13428573 4278190080 2852
0.002857181 -0.034285732 0.13915409 4278190080 2775
0.0057143238 -0.037142877 0.13892242 4278190080 2805
0.002857181 -0.034777954 0.14 4278190080 2521
0.002857181 -0.034778006 0.14000002 4278190080 2774
0.0023274876 -0.034285732 0.14 4278190080 2522
0.0023274324 -0.034285732 0.14000002 4278190080 2773
0.005011511 -0.037142877 0.14 4278190080 2530
0.005011464 -0.037142877 0.14000002 4278190080 2803
0.010887565 -0.037142877 0.13142858 4278190080 2847
0.0085714664 -0.039109156 0.13714288 4278190080 2825
0.0057143238 -0.037909809 0.14 4278190080 2529
0.0057143238 -0.037909858 0.14000002 4278190080 2804
5.7220458e-08 -0.03142859 0.13958593 4278190080 9678
3.8146972e-08 -0.03142859 0.13958603 4278190080 2779
0.010810263 -0.034285732 0.12857144 4278190080 2854
5.7220458e-08 -0.031745315 0.14000002 4278190080 9677
5.7220458e-08 -0.031745259 0.14 4278190080 7983
3.8146972e-08 -0.031745233 0.14000002 4278190080 2780
3.8146972e-08 -0.03174518 0.14 4278190080 2527
0.011428609 -0.037142877 0.13072528 4278190080 2849
0.011428609 -0.037811738 0.13142858 4278190080 2848
-0.00027301518 -0.03142859 0.14 4278190080 7980
-0.00027306011 -0.03142859 0.14000002 4278190080 9676
0.011428609 -0.035111628 0.12857144 4278190080 2855
0.009303011 -0.039999999 0.13714288 4278190080 2721
0.0093030678 -0.040000018 0.13714288 4278190080 2853
0.0057143238 -0.03142859 0.13227941 4278190080 2811
0.0041591893 -0.03142859 0.13428573 4278190080 2809
0.0063608233 -0.03142859 0.13142858 4278190080 2834
0.002857181 -0.03142859 0.1357462 4278190080 2778
3.8146972e-08 -0.029531932 0.13714288 4278190080 2785
5.7220458e-08 -0.02953201 0.13714288 4278190080 9680
0.0057143238 -0.033346061 0.13428573 4278190080 2810
0.0017142599 -0.03142859 0.13714288 4278190080 2776
-0.00092446327 -0.028571447 0.13714288 4278190080 9679
0.0085714664 -0.031394027 0.12857144 4278190080 2837
0.0085714664 -0.03142859 0.12860492 4278190080 2835
0.0085948668 -0.03142859 0.12857144 4278190080 2860
0.002857181 -0.032786883 0.13714288 4278190080 2777
0.0085714664 -0.028571447 0.1260128 4278190080 2838
0.0064724623 -0.034285732 0.13428573 4278190080 2832
0.0085714664 -0.028287772 0.1257143 4278190080 2843
0.0057143238 -0.034285732 0.13530463 4278190080 2808
0.0087827472 -0.028571447 0.1257143 4278190080 2864
-0.0028570858 -0.02651264 0.13714288 4278190080 9668
0.0085581262 -0.034285732 0.13142858 4278190080 2829
0.0085714664 -0.034285732 0.1314116 4278190080 2831
0.0085714664 -0.034303639 0.13142858 4278190080 2830
0.0010950201 -0.022857163 0.12857144 4278190080 2791
5.7220458e-08 -0.022857163 0.12983488 4278190080 9687
3.8146972e-08 -0.022857163 0.12983495 4278190080 2794
0.002857181 -0.024657402 0.12857144 4278190080 2792
5.7220458e-08 -0.021838486 0.12857144 4278190080 9689
3.8146972e-08 -0.021838417 0.12857144 4278190080 2802
5.7220458e-08 -0.0242362 0.13142858 4278190080 9686
3.8146972e-08 -0.024236124 0.13142858 4278190080 2795
0.002857181 -0.025714304 0.1297195 4278190080 2788
0.0014003973 -0.025714304 0.13142858 4278190080 2786
-0.0013953932 -0.022857163 0.13142858 4278190080 9685
0.002857181 -0.022857163 0.12645972 4278190080 2793
0.0039226185 -0.025714304 0.12857144 4278190080 2815
0.002857181 -0.022212647 0.1257143 4278190080 2800
5.7220458e-08 -0.025714304 0.133068 4278190080 9684
3.8146972e-08 -0.025714304 0.13306808 4278190080 2789
0.002857181 -0.027310863 0.13142858 4278190080 2787
0.0035553242 -0.022857163 0.1257143 4278190080 2818
-0.0017182132 -0.020000018 0.12857144 4278190080 9688
-0.0017181546 -0.019999944 0.12857144 4278190080 9808
3.8146972e-08 -0.020000018 0.1260356 4278190080 2801
5.7220458e-08 -0.020000018 0.12603551 4278190080 9690
3.8146972e-08 -0.019999944 0.12603568 4278190080 6608
5.7220458e-08 -0.019999944 0.12603559 4278190080 9807
-0.0028570858 -0.021310592 0.13142858 4278190080 9674
0.0002998565 -0.020000018 0.1257143 4278190080 2799
0.00029993331 -0.019999944 0.1257143 4278190080 6607
5.7220458e-08 -0.019672755 0.1257143 4278190080 9805
3.8146972e-08 -0.019672662 0.1257143 4278190080 6605
-0.0028570858 -0.020000018 0.13004722 4278190080 9675
-0.0028570858 -0.019999944 0.13004729 4278190080 9795
-0.0028570858 -0.022857163 0.13314284 4278190080 9672
-0.0011117471 -0.025714304 0.13428573 4278190080 9682
0.0057143238 -0.025714304 0.12639043 4278190080 2817
3.8146972e-08 -0.026883133 0.13428573 4278190080 2790
5.7220458e-08 -0.026883211 0.13428573 4278190080 9683
0.0040661069 -0.028571447 0.13142858 4278190080 2812
0.0057143238 -0.025088653 0.1257143 4278190080 2819
0.0057143238 -0.02766026 0.12857144 4278190080 2816
0.002857181 -0.028571447 0.13282843 4278190080 2783
-0.0028570858 -0.023881357 0.13428573 4278190080 9671
0.006272729 -0.025714304 0.1257143 4278190080 2842
0.0057143238 -0.028571447 0.1295128 4278190080 2814
-0.0028570858 -0.018597906 0.12857144 4278190080 9793
-0.004061847 -0.020000018 0.13142858 4278190080 9673
-0.0040617832 -0.019999944 0.13142858 4278190080 9796
0.0015899307 -0.028571447 0.13428573 4278190080 2781
-0.0038771289 -0.022857163 0.13428573 4278190080 9670
0.0065134983 -0.028571447 0.12857144 4278190080 2836
0.002857181 -0.020195397 0.12285716 4278190080 2797
0.0026507159 -0.020000018 0.12285716 4278190080 2796
0.0026507778 -0.019999944 0.12285716 4278190080 6603
0.0057143238 -0.022857163 0.12312211 4278190080 2820
0.002857181 -0.020000018 0.12261639 4278190080 2798
0.002857181 -0.019999944 0.12261645 4278190080 6600
0.0057143238 -0.022655195 0.12285716 4278190080 2823
0.002857181 -0.030008448 0.13428573 4278190080 2782
0.005903204 -0.022857163 0.12285716 4278190080 2846
-0.0028570858 -0.017142799 0.12695059 4278190080 9794
-0.0018605355 -0.017142799 0.1257143 4278190080 9804
-0.0028570858 -0.025714304 0.13628827 4278190080 9669
5.7220458e-08 -0.028571447 0.13610296 4278190080 9681
3.8146972e-08 -0.028571447 0.13610306 4278190080 2784
0.0057143238 -0.030638516 0.13142858 4278190080 2813
-0.0042913482 -0.017142799 0.12857144 4278190080 9792
-0.0057142288 -0.020000018 0.13339382 4278190080 9663
-0.0057142288 -0.019999944 0.1333939 4278190080 9781
-0.0057142288 -0.02087206 0.13428573 4278190080 9662
