# .PCD v0.7 - Point Cloud Data file format
VERSION 0.7
FIELDS x y z rgb
SIZE 4 4 4 4
TYPE F F F U
COUNT 1 1 1 1
WIDTH 159
HEIGHT 1
VIEWPOINT 0 0 0 1 0 0 0
POINTS 159
DATA ascii
-0.03542605 -0.17860766 -0.062866151 4278190080
-0.03542605 -0.17860764 -0.062866218 4278190080
-0.026740231 -0.17632768 -0.062733769 4278190080
-0.026740313 -0.17632763 -0.062733769 4278190080
-0.037801418 -0.1813325 -0.062406152 4278190080
-0.024014894 -0.17885216 -0.058670081 4278190080
-0.024014894 -0.17885214 -0.058670141 4278190080
-0.021296602 -0.18165973 -0.055950359 4278190080
-0.023965107 -0.17788118 -0.059760116 4278190080
-0.032542937 -0.17809071 -0.062620826 4278190080
-0.021236399 -0.18043216 -0.056718364 4278190080
-0.029639378 -0.17716083 -0.062680602 4278190080
-0.03479718 -0.17861789 -0.062587731 4278190080
-0.034797337 -0.17861791 -0.062587731 4278190080
-0.035453029 -0.17916068 -0.062551498 4278190080
-0.021162163 -0.17891119 -0.057590641 4278190080
-0.021162163 -0.17891119 -0.057590701 4278190080
-0.024149235 -0.18160565 -0.057102561 4278190080
-0.029720685 -0.17872104 -0.060638376 4278190080
-0.029720685 -0.17872103 -0.060638443 4278190080
-0.035560161 -0.18137293 -0.061470933 4278190080
-0.026874412 -0.17893437 -0.059691928 4278190080
-0.02687449 -0.17893429 -0.059691932 4278190080
-0.026867678 -0.17879444 -0.059769012 4278190080
-0.026867678 -0.17879443 -0.059769087 4278190080
-0.026867596 -0.17879444 -0.059769034 4278190080
-0.026867596 -0.17879443 -0.059769109 4278190080
-0.02670517 -0.17879736 -0.05970107 4278190080
-0.026704995 -0.17879735 -0.059701063 4278190080
-0.023054989 -0.18162493 -0.056639224 4278190080
-0.032573387 -0.17866284 -0.061730154 4278190080
-0.032573387 -0.17866282 -0.061730213 4278190080
-0.037753358 -0.18418822 -0.062210985 4278190080
-0.021563027 -0.1872827 -0.054511644 4278190080
-0.0214299 -0.18446685 -0.055167168 4278190080
-0.029854927 -0.18147963 -0.059145518 4278190080
-0.030858386 -0.18145883 -0.059524611 4278190080
-0.035692543 -0.18422711 -0.061376035 4278190080
-0.032707535 -0.18142645 -0.060310699 4278190080
-0.024282107 -0.18443474 -0.056640752 4278190080
-0.027001888 -0.18155472 -0.058300644 4278190080
-0.027001806 -0.18155472 -0.058300674 4278190080
-0.023867961 -0.18444085 -0.056447893 4278190080
-0.029814623 -0.18064991 -0.059578527 4278190080
-0.037711516 -0.18704364 -0.062015846 4278190080
-0.03146784 -0.18713763 -0.059137419 4278190080
-0.032972611 -0.18711843 -0.05988159 4278190080
-0.027267762 -0.18720587 -0.0572742 4278190080
-0.02726768 -0.18720587 -0.05727423 4278190080
-0.029987827 -0.1843072 -0.05866126 4278190080
-0.031452052 -0.18428488 -0.059332304 4278190080
-0.025005547 -0.19009525 -0.056063056 4278190080
-0.03609084 -0.1927302 -0.060222227 4278190080
-0.035957508 -0.18992469 -0.061029151 4278190080
-0.024547847 -0.19009273 -0.055714294 4278190080
-0.032840095 -0.18427143 -0.060081184 4278190080
-0.024735212 -0.18725425 -0.056256801 4278190080
-0.027134746 -0.18438442 -0.057847694 4278190080
-0.027134664 -0.18438442 -0.057847716 4278190080
-0.035824984 -0.18707792 -0.061232269 4278190080
-0.024415087 -0.18725808 -0.056094773 4278190080
-0.024361752 -0.18612765 -0.056333289 4278190080
-0.030252388 -0.1900257 -0.058620431 4278190080
-0.030940788 -0.19001549 -0.05894012 4278190080
-0.024625983 -0.19125234 -0.050255679 4278190080
-0.027399888 -0.19007313 -0.057370968 4278190080
-0.027399806 -0.19007313 -0.057371005 4278190080
-0.024602424 -0.19102255 -0.053135253 4278190080
-0.024602424 -0.19102255 -0.053135276 4278190080
-0.033104919 -0.18997633 -0.059841424 4278190080
-0.024656329 -0.19162786 -0.047366139 4278190080
-0.030120306 -0.18715629 -0.058492281 4278190080
-0.036225654 -0.19545949 -0.058300093 4278190080
-0.033251744 -0.19304474 -0.058736149 4278190080
-0.036215149 -0.1952603 -0.058588617 4278190080
-0.032891035 -0.19277884 -0.058753844 4278190080
-0.036534846 -0.19546387 -0.058575124 4278190080
-0.033238403 -0.19277379 -0.058916491 4278190080
-0.027458236 -0.19120108 -0.055990677 4278190080
-0.027458154 -0.19120112 -0.055990674 4278190080
-0.032394551 -0.19773021 -0.04695924 4278190080
-0.032394495 -0.19773018 -0.046959244 4278190080
-0.033066113 -0.1978938 -0.04981285 4278190080
-0.033066068 -0.19789377 -0.049812853 4278190080
-0.031338666 -0.19512017 -0.050000116 4278190080
-0.030531066 -0.19502065 -0.047992356 4278190080
-0.033545908 -0.19853614 -0.049769592 4278190080
-0.030552942 -0.19540864 -0.047115467 4278190080
-0.033513702 -0.19794208 -0.050824899 4278190080
-0.033513699 -0.19794206 -0.050825015 4278190080
-0.030266309 -0.19497509 -0.047144718 4278190080
-0.030475119 -0.1940129 -0.050074648 4278190080
-0.033613753 -0.19971749 -0.046825048 4278190080
-0.033440799 -0.19655408 -0.052768782 4278190080
-0.033440795 -0.19655403 -0.052768804 4278190080
-0.032534465 -0.19525953 -0.05285605 4278190080
-0.032534502 -0.19525953 -0.052856073 4278190080
-0.031478927 -0.19757789 -0.044104543 4278190080
-0.031478882 -0.19757786 -0.044104546 4278190080
-0.034428369 -0.19802544 -0.052669533 4278190080
-0.034428436 -0.19802547 -0.052669529 4278190080
-0.034428407 -0.19802544 -0.052669555 4278190080
-0.034428474 -0.19802547 -0.052669551 4278190080
-0.034098819 -0.20050488 -0.046771877 4278190080
-0.030616075 -0.19648869 -0.044177845 4278190080
-0.035567924 -0.20063162 -0.049629048 4278190080
-0.033652913 -0.20044595 -0.04560487 4278190080
-0.029525179 -0.19235052 -0.050186988 4278190080
-0.029520346 -0.19481494 -0.044290781 4278190080
-0.028890619 -0.19218521 -0.047333542 4278190080
-0.036499806 -0.20068632 -0.051065385 4278190080
-0.033376358 -0.19534223 -0.054641046 4278190080
-0.030410033 -0.19289081 -0.053015132 4278190080
-0.030410031 -0.19289079 -0.053015158 4278190080
-0.03301372 -0.20036042 -0.043916427 4278190080
-0.036459234 -0.19995207 -0.052540556 4278190080
-0.036459237 -0.19995211 -0.05254053 4278190080
-0.030093499 -0.19251889 -0.053040151 4278190080
-0.030093476 -0.19251889 -0.053040128 4278190080
-0.036556747 -0.20177089 -0.049552489 4278190080
-0.030670978 -0.1974885 -0.042245254 4278190080
-0.030670982 -0.19748853 -0.042245168 4278190080
-0.030390818 -0.19256981 -0.053988528 4278190080
-0.02752817 -0.19187433 -0.047353018 4278190080
-0.027528089 -0.19187434 -0.047353018 4278190080
-0.033870101 -0.19539241 -0.055712625 4278190080
-0.03334868 -0.19485123 -0.055748925 4278190080
-0.037569441 -0.20073372 -0.052488565 4278190080
-0.037569486 -0.20073372 -0.052488588 4278190080
-0.027548205 -0.19211031 -0.045321722 4278190080
-0.027548123 -0.19211031 -0.045321811 4278190080
-0.027514657 -0.19186047 -0.050217871 4278190080
-0.027514577 -0.1918605 -0.050217871 4278190080
-0.027581003 -0.19273308 -0.044430502 4278190080
-0.027580924 -0.19273314 -0.044430498 4278190080
-0.033732999 -0.2020033 -0.043805115 4278190080
-0.036361702 -0.19812573 -0.05545551 4278190080
-0.036361702 -0.19812571 -0.055455618 4278190080
-0.030302394 -0.19743764 -0.041248683 4278190080
-0.030302364 -0.19743761 -0.041248683 4278190080
-0.036358736 -0.19806914 -0.05553297 4278190080
-0.036417969 -0.1981281 -0.055529013 4278190080
-0.036418043 -0.19812813 -0.05552901 4278190080
-0.03573592 -0.2032827 -0.046584211 4278190080
-0.03071763 -0.19839436 -0.041183855 4278190080
-0.036636356 -0.20332679 -0.047843497 4278190080
-0.028463036 -0.19466917 -0.041435443 4278190080
-0.031061264 -0.1926688 -0.055895064 4278190080
-0.031574477 -0.2002323 -0.041059397 4278190080
-0.037982497 -0.20337349 -0.049444843 4278190080
-0.034172006 -0.20316036 -0.043726631 4278190080
-0.027500052 -0.1918231 -0.053084314 4278190080
-0.027500052 -0.19182308 -0.053084336 4278190080
-0.027499972 -0.19182314 -0.05308431 4278190080
-0.02749997 -0.19182314 -0.053084332 4278190080
-0.030374289 -0.19239928 -0.055912592 4278190080
-0.027668104 -0.19432819 -0.041457713 4278190080
-0.027668023 -0.19432822 -0.041457713 4278190080
-0.033788752 -0.20312285 -0.042916235 4278190080
