# .PCD v0.7 - Point Cloud Data file format
VERSION 0.7
FIELDS x y z rgb
SIZE 4 4 4 4
TYPE F F F U
COUNT 1 1 1 1
WIDTH 162
HEIGHT 1
VIEWPOINT 0 0 0 1 0 0 0
POINTS 162
DATA ascii
0.056154549 -0.17029145 0.011423187 4278190080
0.058277741 -0.17215309 0.011553125 4278190080
0.05891262 -0.17248814 0.011576839 4278190080
0.06170512 -0.17339174 0.017370041 4278190080
0.05888655 -0.1727716 0.0144601 4278190080
0.06462305 -0.17182821 0.020635353 4278190080
0.064603947 -0.17228748 0.020162277 4278190080
0.064753614 -0.16888057 0.021908201 4278190080
0.064822719 -0.16731009 0.022686414 4278190080
0.061703764 -0.17369735 0.014526998 4278190080
0.06453792 -0.17398271 0.017414086 4278190080
0.06488397 -0.16592295 0.023326997 4278190080
0.061763689 -0.16868217 0.022776196 4278190080
0.061898313 -0.16869037 0.0227479 4278190080
0.061900206 -0.16864692 0.022773964 4278190080
0.062028829 -0.16574065 0.024051014 4278190080
0.061768748 -0.17168882 0.020731485 4278190080
0.058878072 -0.17267738 0.017317574 4278190080
0.061747376 -0.17220728 0.0201531 4278190080
0.053346999 -0.16886556 0.014354344 4278190080
0.053347014 -0.16886556 0.014354203 4278190080
0.053425759 -0.16888063 0.014187194 4278190080
0.053351402 -0.16878743 0.01418073 4278190080
0.053351391 -0.16878736 0.014180725 4278190080
0.056102745 -0.17112789 0.014344194 4278190080
0.062144674 -0.16311744 0.025260407 4278190080
0.062144674 -0.16311736 0.025260417 4278190080
0.057066195 -0.17190243 0.01439836 4278190080
0.062159166 -0.16278183 0.025487548 4278190080
0.057977885 -0.1715553 0.020103674 4278190080
0.058915108 -0.17158324 0.020333257 4278190080
0.058906827 -0.171783 0.020120434 4278190080
0.056076165 -0.17142262 0.017228218 4278190080
0.056438357 -0.17167877 0.017246187 4278190080
0.059320144 -0.16207242 0.028049273 4278190080
0.056189232 -0.1683871 0.023298526 4278190080
0.056167677 -0.16890331 0.022784058 4278190080
0.053281851 -0.16972864 0.019972794 4278190080
0.053281866 -0.16972867 0.019972796 4278190080
0.050563317 -0.16695936 0.016916145 4278190080
0.059162926 -0.16572714 0.025434844 4278190080
0.05916293 -0.16572703 0.025434852 4278190080
0.059172589 -0.16550183 0.025601957 4278190080
0.049286917 -0.16564116 0.016824432 4278190080
0.051968366 -0.16861862 0.017031327 4278190080
0.059467535 -0.16552788 0.025421638 4278190080
0.05946767 -0.16552788 0.025421625 4278190080
0.056091342 -0.17082 0.020050995 4278190080
0.05904343 -0.16852097 0.023283035 4278190080
0.058619417 -0.16244054 0.028073516 4278190080
0.059020959 -0.16905414 0.022798058 4278190080
0.047848087 -0.1638425 0.016699683 4278190080
0.053300977 -0.16959423 0.017099706 4278190080
0.053300988 -0.16959427 0.017099708 4278190080
0.056532163 -0.16024196 0.030784532 4278190080
0.059302203 -0.16250575 0.027583972 4278190080
0.052664794 -0.16826153 0.022735674 4278190080
0.053335555 -0.16827923 0.022933614 4278190080
0.05333557 -0.16827922 0.022933636 4278190080
0.050510433 -0.16781914 0.019838747 4278190080
0.053327058 -0.16848077 0.02275151 4278190080
0.053327072 -0.16848078 0.022751512 4278190080
0.051005147 -0.16837944 0.019877668 4278190080
0.056406114 -0.16322693 0.028124377 4278190080
0.056317832 -0.16533934 0.026036322 4278190080
0.056284495 -0.16611674 0.025457751 4278190080
0.056284491 -0.1661168 0.02545774 4278190080
0.056446388 -0.16228886 0.028814051 4278190080
0.047787651 -0.16486453 0.019633356 4278190080
0.050530009 -0.16712201 0.022655057 4278190080
0.048202585 -0.16539638 0.019670233 4278190080
0.053463571 -0.16520114 0.026114941 4278190080
0.053463586 -0.16520114 0.026114941 4278190080
0.053425912 -0.16608019 0.02545155 4278190080
0.053425927 -0.16608019 0.02545155 4278190080
0.053425908 -0.16608025 0.025451539 4278190080
0.053425923 -0.16608025 0.025451539 4278190080
0.053720441 -0.15908831 0.031843875 4278190080
0.053720456 -0.15908831 0.031843882 4278190080
0.043370467 -0.15888208 0.027810652 4278190080
0.04469049 -0.1617966 0.028011486 4278190080
0.045162048 -0.15889929 0.028779443 4278190080
0.045030668 -0.16180469 0.028124899 4278190080
0.045025021 -0.16193682 0.0280215 4278190080
0.042369306 -0.15754075 0.027717717 4278190080
0.04443422 -0.16197939 0.025159737 4278190080
0.044434234 -0.16197941 0.025159722 4278190080
0.042755786 -0.1590483 0.024957307 4278190080
0.042755801 -0.1590483 0.024957292 4278190080
0.045005418 -0.16263455 0.025205238 4278190080
0.045005418 -0.16263454 0.025205221 4278190080
0.042344961 -0.15834036 0.024908409 4278190080
0.042344961 -0.15834035 0.024908392 4278190080
0.045259178 -0.15662888 0.030523086 4278190080
0.047884211 -0.16190606 0.02858487 4278190080
0.047856592 -0.16255385 0.028067321 4278190080
0.04243448 -0.15586381 0.030467158 4278190080
0.048013739 -0.15890567 0.03062962 4278190080
0.042437762 -0.15578492 0.030548546 4278190080
0.042437762 -0.15578486 0.030548461 4278190080
0.048017334 -0.15882327 0.030676579 4278190080
0.048096329 -0.15890591 0.030682329 4278190080
0.041921087 -0.15576687 0.03045987 4278190080
0.041920532 -0.1557669 0.030459873 4278190080
0.045291442 -0.15589224 0.030921668 4278190080
0.045291446 -0.15589218 0.030921595 4278190080
0.040532522 -0.15589738 0.02760306 4278190080
0.040532582 -0.15589732 0.027603056 4278190080
0.040723592 -0.15610085 0.024753287 4278190080
0.040723547 -0.15610085 0.024753302 4278190080
0.040723607 -0.15610079 0.024753299 4278190080
0.040723622 -0.15610079 0.024753284 4278190080
0.045038089 -0.16218507 0.022558998 4278190080
0.043502554 -0.15927747 0.02211001 4278190080
0.045042485 -0.16211456 0.022305839 4278190080
0.045092657 -0.16220447 0.022312045 4278190080
0.0473889 -0.16496947 0.025367834 4278190080
0.047389004 -0.16496949 0.025367849 4278190080
0.048144698 -0.15597861 0.031601306 4278190080
0.048144698 -0.15597855 0.031601258 4278190080
0.047756135 -0.16498077 0.025452694 4278190080
0.047751054 -0.165098 0.025377098 4278190080
0.047751054 -0.16509803 0.025377084 4278190080
0.03963045 -0.15465471 0.03038092 4278190080
0.042393595 -0.15757181 0.021992041 4278190080
0.050737962 -0.16201787 0.028892476 4278190080
0.050838605 -0.15966162 0.030737508 4278190080
0.050696809 -0.16298498 0.028100453 4278190080
0.050866816 -0.15898296 0.031442016 4278190080
0.045366075 -0.15405546 0.033211317 4278190080
0.042513732 -0.1538844 0.033195939 4278190080
0.041650373 -0.15633835 0.021906808 4278190080
0.041650392 -0.15633829 0.021906802 4278190080
0.040150709 -0.15302616 0.027406402 4278190080
0.039718881 -0.15294704 0.028271042 4278190080
0.040817231 -0.15325163 0.02455876 4278190080
0.040817246 -0.15325163 0.024558745 4278190080
0.047528338 -0.16517057 0.022517845 4278190080
0.048213325 -0.15433547 0.033234134 4278190080
0.047752589 -0.16534148 0.022529813 4278190080
0.050609782 -0.16508725 0.025838092 4278190080
0.039660942 -0.15372311 0.033181224 4278190080
0.042451572 -0.15649274 0.020191628 4278190080
0.042451575 -0.15649268 0.02019166 4278190080
0.050997775 -0.15605605 0.032411449 4278190080
0.050997779 -0.15605599 0.032411419 4278190080
0.050585411 -0.16565505 0.025418825 4278190080
0.050585411 -0.16565509 0.025418814 4278190080
0.038379125 -0.15274963 0.030249141 4278190080
0.045121077 -0.1607022 0.019345533 4278190080
0.044416219 -0.15951435 0.019263463 4278190080
0.047761243 -0.16524266 0.021620877 4278190080
0.046030872 -0.16244249 0.019465607 4278190080
0.041538708 -0.15347962 0.021711351 4278190080
0.053591952 -0.16214198 0.029019805 4278190080
0.053591967 -0.16214198 0.029019812 4278190080
0.042989276 -0.15659489 0.019062154 4278190080
0.042989306 -0.15659483 0.01906215 4278190080
0.053676918 -0.16013369 0.030773437 4278190080
0.053676933 -0.16013369 0.030773437 4278190080
0.053544726 -0.16325067 0.028122293 4278190080
0.053544741 -0.16325067 0.028122293 4278190080
