# .PCD v0.7 - Point Cloud Data file format
VERSION 0.7
FIELDS x y z rgb
SIZE 4 4 4 4
TYPE F F F U
COUNT 1 1 1 1
WIDTH 258
HEIGHT 1
VIEWPOINT 0 0 0 1 0 0 0
POINTS 258
DATA ascii
0.013376135 -0.17739066 0.059175946 4278190080
0.011901762 -0.17758949 0.059318792 4278190080
0.010324389 -0.17795484 0.059523806 4278190080
0.01639441 -0.17697692 0.058881219 4278190080
0.013306387 -0.17761524 0.060130931 4278190080
0.019834366 -0.17509732 0.053840328 4278190080
0.019834381 -0.1750973 0.053840354 4278190080
0.010424018 -0.17761883 0.0583046 4278190080
0.016566701 -0.17638104 0.056913197 4278190080
0.020018961 -0.1744529 0.051788155 4278190080
0.02001898 -0.1744529 0.051788151 4278190080
0.018261097 -0.1735241 0.048536822 4278190080
0.016685836 -0.17597443 0.05550063 4278190080
0.016685825 -0.17597449 0.055500671 4278190080
0.013701219 -0.17627086 0.055419657 4278190080
0.010573264 -0.17714362 0.056210771 4278190080
0.010573253 -0.17714365 0.056210801 4278190080
0.013664186 -0.17640336 0.055800721 4278190080
0.013664175 -0.17640339 0.055800755 4278190080
0.01702923 -0.17473836 0.052037574 4278190080
0.0046911836 -0.17758405 0.05363702 4278190080
0.016979214 -0.17491753 0.052550338 4278190080
0.01423724 -0.17628065 0.055729669 4278190080
0.01423737 -0.17628068 0.055729687 4278190080
0.0075312182 -0.17769259 0.056273013 4278190080
0.0079165697 -0.17768706 0.056531478 4278190080
0.0079166703 -0.17768708 0.056531496 4278190080
0.0046410598 -0.17774858 0.054293435 4278190080
0.0074987821 -0.17780992 0.0565947 4278190080
0.0074987672 -0.17780998 0.056594737 4278190080
0.0038529038 -0.1777678 0.053742409 4278190080
0.014100388 -0.17489725 0.050793812 4278190080
0.010888387 -0.17603463 0.052792586 4278190080
0.0097866133 -0.17627835 0.052931868 4278190080
0.0077906512 -0.17680544 0.053213432 4278190080
0.010818083 -0.17627963 0.053578176 4278190080
0.01394875 -0.17543171 0.052431051 4278190080
0.017381977 -0.17351972 0.047995307 4278190080
0.017319378 -0.17374164 0.048659015 4278190080
0.017641958 -0.17259911 0.04522898 4278190080
0.016200159 -0.17489186 0.052132152 4278190080
0.013376426 -0.17342867 0.045729201 4278190080
0.011226356 -0.17484468 0.049131766 4278190080
0.0080961995 -0.17573948 0.049810424 4278190080
0.011206448 -0.17491242 0.049369719 4278190080
0.011507723 -0.17483768 0.049328871 4278190080
0.014590774 -0.17316078 0.045575947 4278190080
0.014512125 -0.17343898 0.046415612 4278190080
0.0050394721 -0.1763801 0.049652677 4278190080
0.0056923479 -0.17635253 0.050142087 4278190080
0.0049843714 -0.17657366 0.050253645 4278190080
0.014870487 -0.1719393 0.042121086 4278190080
0.014929876 -0.17194019 0.042155981 4278190080
0.014933851 -0.17192614 0.042113371 4278190080
0.014271561 -0.17428817 0.049000639 4278190080
0.007932134 -0.17630723 0.051681638 4278190080
0.0072504021 -0.17487687 0.046535414 4278190080
0.005299408 -0.17546505 0.046835572 4278190080
0.0084202327 -0.17459044 0.046378076 4278190080
0.012035705 -0.17202328 0.040097114 4278190080
0.011813525 -0.17279856 0.042570096 4278190080
0.01213469 -0.17166242 0.039142303 4278190080
0.011627477 -0.17345794 0.044544365 4278190080
0.0083399154 -0.1748756 0.047225513 4278190080
0.0021782145 -0.17634137 0.04729367 4278190080
0.01149052 -0.17394298 0.046000805 4278190080
0.0017878748 -0.17646743 0.047356594 4278190080
0.002147723 -0.1764469 0.047641478 4278190080
-0.00076766312 -0.17667288 0.045164727 4278190080
-0.00076765195 -0.17667285 0.045164779 4278190080
0.012098394 -0.17048718 0.035719305 4278190080
0.009137433 -0.17213394 0.037957653 4278190080
0.0055559389 -0.17461941 0.043510389 4278190080
0.0089650601 -0.17275637 0.039677266 4278190080
0.0093379952 -0.17138754 0.036167301 4278190080
0.0087303929 -0.17356057 0.04242833 4278190080
0.0086752027 -0.1737518 0.043055363 4278190080
0.0054395683 -0.17500025 0.045045078 4278190080
0.0095795132 -0.17047121 0.034177423 4278190080
0.0093571171 -0.17351894 0.04294112 4278190080
0.011013739 -0.17206444 0.039336666 4278190080
0.0027212054 -0.17451558 0.040595785 4278190080
0.00027162954 -0.1752848 0.04098317 4278190080
-0.00042947009 -0.1755244 0.041100685 4278190080
-0.00042949617 -0.17552446 0.041100707 4278190080
0.0061637647 -0.17250217 0.036709573 4278190080
0.0058215484 -0.173713 0.040163953 4278190080
0.005826287 -0.17371166 0.04016326 4278190080
0.0058259368 -0.17371288 0.040167026 4278190080
0.0071076378 -0.17217898 0.03655114 4278190080
0.0025341474 -0.17515917 0.042764466 4278190080
-0.0035747625 -0.17650905 0.041597046 4278190080
0.0024291016 -0.17552109 0.043977443 4278190080
0.0038315952 -0.17509598 0.043760888 4278190080
-0.0036805682 -0.17688231 0.042736355 4278190080
-0.0047926307 -0.17696083 0.041813344 4278190080
0.0075950101 -0.17047358 0.032920294 4278190080
0.0075951144 -0.17047359 0.032920308 4278190080
-0.00070737302 -0.17646609 0.044459797 4278190080
-0.00070739165 -0.17646612 0.044459812 4278190080
-0.00011023507 -0.17439692 0.037675954 4278190080
-0.00011025369 -0.17439695 0.037675966 4278190080
0.0019406341 -0.17383295 0.037378993 4278190080
-0.0032745637 -0.17546263 0.03824525 4278190080
0.003016036 -0.17349778 0.037209794 4278190080
0.0029306933 -0.17380323 0.038086988 4278190080
0.0065991245 -0.17085278 0.033100523 4278190080
0.0065991357 -0.17085271 0.033100486 4278190080
-0.00037122145 -0.17531765 0.040485155 4278190080
-0.00037120655 -0.17531762 0.040485226 4278190080
0.0066893622 -0.17052716 0.032197937 4278190080
0.0062465109 -0.17219506 0.035963044 4278190080
-0.0064633451 -0.17664716 0.0387679 4278190080
-0.0016930997 -0.17400594 0.034599613 4278190080
-0.0016929954 -0.17400596 0.034599632 4278190080
0.00017271936 -0.1734325 0.034308814 4278190080
0.00017270073 -0.17343254 0.034308828 4278190080
0.00017271191 -0.17343254 0.034308851 4278190080
0.00017268956 -0.17343259 0.034308858 4278190080
-0.0061932579 -0.17574058 0.035421189 4278190080
-0.0061932653 -0.17574063 0.035421219 4278190080
-0.006304048 -0.17577924 0.035440028 4278190080
-0.0063039549 -0.17577925 0.035440043 4278190080
-0.0062025189 -0.17577326 0.035520896 4278190080
3.0659139e-05 -0.17392577 0.035912745 4278190080
3.067404e-05 -0.17392574 0.035912804 4278190080
0.003750246 -0.17060128 0.030136164 4278190080
0.0029296577 -0.17223521 0.033759475 4278190080
0.0029297471 -0.17223522 0.03375949 4278190080
0.0037968606 -0.17059903 0.030171918 4278190080
0.0038025789 -0.17057727 0.030125296 4278190080
0.0034102835 -0.17203315 0.033665985 4278190080
0.0034102723 -0.17203319 0.033666022 4278190080
0.0033625811 -0.17220919 0.034105897 4278190080
-0.0032702759 -0.17544785 0.038195729 4278190080
-0.0033234879 -0.17546609 0.038204663 4278190080
-0.0022209398 -0.17165357 0.0277761 4278190080
-0.0024487376 -0.17253023 0.029535282 4278190080
-0.0057849512 -0.17427571 0.0312576 4278190080
-0.0051665753 -0.17421332 0.031823866 4278190080
-0.0026264302 -0.17316873 0.031337749 4278190080
-0.0058496855 -0.17450371 0.031957839 4278190080
3.8269907e-05 -0.17075749 0.027355019 4278190080
-0.00063781068 -0.17242241 0.030981604 4278190080
0.00088876858 -0.17077585 0.027838912 4278190080
0.00088877976 -0.17077583 0.02783896 4278190080
0.00097392127 -0.17044608 0.027201034 4278190080
0.00097394362 -0.17044602 0.027201019 4278190080
0.0005598478 -0.17199981 0.030776309 4278190080
0.00055986643 -0.17199977 0.030776294 4278190080
-0.0090253595 -0.17562485 0.032502398 4278190080
-0.0028696768 -0.17405052 0.033732031 4278190080
0.00045232475 -0.17240059 0.031730257 4278190080
0.00045233592 -0.17240058 0.031730302 4278190080
0.00091001019 -0.16913459 0.02373286 4278190080
0.0009101145 -0.1691346 0.023732852 4278190080
-0.011939429 -0.1758775 0.029713713 4278190080
0.0013299771 -0.16911909 0.024041351 4278190080
0.0013299622 -0.1691191 0.024041291 4278190080
0.0013299771 -0.1691191 0.024041265 4278190080
0.0013299622 -0.16911912 0.024041217 4278190080
-0.0098239426 -0.17597665 0.032663234 4278190080
-0.0091043711 -0.17590801 0.033310931 4278190080
0.0013708472 -0.16896944 0.023652986 4278190080
0.0013708659 -0.16896939 0.023652975 4278190080
-0.012026779 -0.17618129 0.030695859 4278190080
-0.0029771589 -0.17443776 0.034812458 4278190080
-0.0029771663 -0.17443782 0.034812491 4278190080
-0.0074055232 -0.17287563 0.025434129 4278190080
-0.0051249936 -0.17186125 0.024971522 4278190080
-0.0083699636 -0.1732938 0.025626075 4278190080
-0.003430035 -0.17096597 0.024579372 4278190080
-0.0015690662 -0.16923507 0.021886304 4278190080
-0.0015690662 -0.16923505 0.021886382 4278190080
-0.0053523444 -0.17267682 0.027290709 4278190080
-0.0018300749 -0.17020416 0.024237674 4278190080
-0.0014253035 -0.16869223 0.020677164 4278190080
-0.011618432 -0.17474584 0.026250888 4278190080
-0.011584044 -0.1747417 0.026284296 4278190080
-0.01162158 -0.17475626 0.026291188 4278190080
-0.0019996054 -0.17082 0.02589399 4278190080
-0.014254913 -0.17512129 0.023526654 4278190080
-0.0054629445 -0.17307283 0.028425954 4278190080
-0.014560305 -0.17515035 0.023251947 4278190080
-0.0043112896 -0.17258687 0.028201327 4278190080
-0.014590081 -0.17525366 0.023588933 4278190080
-0.0011272281 -0.16757397 0.018101349 4278190080
-0.008684095 -0.17439835 0.029042702 4278190080
-0.0087034367 -0.17440709 0.029046673 4278190080
-0.0086859725 -0.17440487 0.029063974 4278190080
-0.010492753 -0.17060472 0.015745364 4278190080
-0.0090328939 -0.1698592 0.01541635 4278190080
-0.0090328157 -0.1698592 0.015416346 4278190080
-0.010768233 -0.1716492 0.018021222 4278190080
-0.010316784 -0.16992338 0.014425661 4278190080
-0.010316782 -0.16992338 0.014425591 4278190080
-0.0074088778 -0.16974783 0.016754925 4278190080
-0.0074088778 -0.16974784 0.016754843 4278190080
-0.0095952936 -0.17154847 0.019045494 4278190080
-0.0076255146 -0.17056252 0.018608388 4278190080
-0.0071884952 -0.16890566 0.014996685 4278190080
-0.012918811 -0.17178802 0.016273119 4278190080
-0.010936303 -0.17229094 0.019367427 4278190080
-0.013678377 -0.17183995 0.015647501 4278190080
-0.0057354383 -0.16961405 0.018188138 4278190080
-0.0057353452 -0.16961405 0.018188134 4278190080
-0.0078480598 -0.17139101 0.020592205 4278190080
-0.013790812 -0.17227599 0.016484223 4278190080
-0.010052152 -0.16893175 0.012127973 4278190080
-0.010052167 -0.16893181 0.012127921 4278190080
-0.012883771 -0.16998558 0.012632057 4278190080
-0.012883862 -0.16998558 0.012632065 4278190080
-0.012883702 -0.16998562 0.01263199 4278190080
-0.012883794 -0.16998562 0.012631994 4278190080
-0.0069625415 -0.16805646 0.01305851 4278190080
-0.013259405 -0.17019489 0.01272269 4278190080
-0.013259424 -0.17019498 0.012722645 4278190080
-0.013213545 -0.17002396 0.012315661 4278190080
-0.013213547 -0.17002398 0.012315564 4278190080
-0.008375708 -0.16819024 0.011789333 4278190080
-0.0083756391 -0.16819027 0.011789262 4278190080
-0.0052126534 -0.16791624 0.014558092 4278190080
-0.0043167956 -0.16884342 0.01785263 4278190080
-0.013436163 -0.17348701 0.019903287 4278190080
-0.0044890158 -0.16949174 0.019319728 4278190080
-0.0044890158 -0.16949174 0.01931981 4278190080
-0.0080358237 -0.17209935 0.022177693 4278190080
-0.014127092 -0.17354737 0.01929703 4278190080
-0.011210863 -0.17331563 0.021790646 4278190080
-0.0064192303 -0.17127727 0.021814544 4278190080
-0.0040463358 -0.167825 0.015551332 4278190080
-0.01421174 -0.17386052 0.020070374 4278190080
-0.010246959 -0.17321864 0.022672635 4278190080
-0.0098855551 -0.16833378 0.010431554 4278190080
-0.0067780279 -0.16736814 0.011427138 4278190080
-0.0067780428 -0.1673682 0.011427086 4278190080
-0.0047344863 -0.17041342 0.021433655 4278190080
-0.0038860142 -0.1672146 0.014250837 4278190080
-0.011331249 -0.1737587 0.022912342 4278190080
-0.016568027 -0.17189255 0.013677835 4278190080
-0.016535005 -0.17176516 0.013425883 4278190080
-0.01653502 -0.17176525 0.013425831 4278190080
-0.016768023 -0.17372479 0.017130725 4278190080
-0.016812757 -0.17190519 0.013487861 4278190080
-0.016812695 -0.17190522 0.01348779 4278190080
-0.017036704 -0.17373447 0.016933985 4278190080
-0.0049257725 -0.17111857 0.023204889 4278190080
-0.017065797 -0.1738435 0.017186437 4278190080
-0.011539742 -0.16846403 0.009020485 4278190080
-0.012952857 -0.16912442 0.0093180202 4278190080
-0.0020009167 -0.1676527 0.017327942 4278190080
-0.0026316755 -0.16932733 0.020955559 4278190080
-0.0026315711 -0.16932735 0.020955551 4278190080
-0.0082751121 -0.17295249 0.024668608 4278190080
-0.0096608475 -0.16748036 0.0085887648 4278190080
-0.0045177005 -0.1662554 0.010931928 4278190080
-0.0045176297 -0.16625544 0.010931861 4278190080
-0.0036040172 -0.16616067 0.011775825 4278190080
