# .PCD v0.7 - Point Cloud Data file format
VERSION 0.7
FIELDS x y z rgba label
SIZE 4 4 4 4 4
TYPE F F F U U
COUNT 1 1 1 1 1
WIDTH 162
HEIGHT 1
VIEWPOINT 0 0 0 1 0 0 0
POINTS 162
DATA ascii
-0.0074799485 -0.065714262 0.16285712 4278190080 15744
-0.0057142288 -0.065714262 0.16506451 4278190080 15745
-0.0054081208 -0.065714262 0.16571426 4278190080 15768
-0.0042428426 -0.071428552 0.16857141 4278190080 15756
-0.0049282061 -0.068571411 0.16571426 4278190080 15761
-0.0057142288 -0.074788935 0.17142856 4278190080 15732
-0.0052878135 -0.074285701 0.17142856 4278190080 15753
-0.0085713714 -0.076259509 0.17142856 4278190080 15710
-0.0100868 -0.077142835 0.17142856 4278190080 15706
-0.0041316631 -0.068571411 0.16857141 4278190080 15762
-0.0037822437 -0.071428552 0.17142856 4278190080 15757
-0.011428514 -0.077876367 0.17142856 4278190080 15687
-0.0085713714 -0.077142835 0.16843668 4278190080 15705
-0.0085713714 -0.077113874 0.16857141 4278190080 15709
-0.0086129764 -0.077142835 0.16857141 4278190080 15704
-0.011428514 -0.078614786 0.16857141 4278190080 15685
-0.0057142288 -0.074898027 0.16857141 4278190080 15731
-0.0048272517 -0.071428552 0.16571426 4278190080 15755
-0.0052358774 -0.074285701 0.16857141 4278190080 15752
-0.0085713714 -0.068739295 0.15999998 4278190080 15714
-0.0085713714 -0.068739153 0.16 4278190080 21461
-0.0085713714 -0.068571411 0.1600786 4278190080 15715
-0.0086612394 -0.068571411 0.16 4278190080 21462
-0.0086613158 -0.068571411 0.15999998 4278190080 15716
-0.0064451629 -0.068571411 0.16285712 4278190080 15742
-0.013965968 -0.079999961 0.16857141 4278190080 24700
-0.013966044 -0.079999976 0.16857141 4278190080 15684
-0.0057142288 -0.068571411 0.16385551 4278190080 15743
-0.014285657 -0.080249421 0.16857141 4278190080 24689
-0.0057142288 -0.074285701 0.16477576 4278190080 15729
-0.0057142288 -0.074511625 0.16571426 4278190080 15730
-0.0055292128 -0.074285701 0.16571426 4278190080 15751
-0.0059539415 -0.071428552 0.16285712 4278190080 15737
-0.0057142288 -0.071428552 0.16323082 4278190080 15739
-0.014686678 -0.082857102 0.16571426 4278190080 24684
-0.0085713714 -0.077691242 0.16285712 4278190080 15701
-0.0080908965 -0.077142835 0.16285712 4278190080 15724
-0.0073258453 -0.074285701 0.15999998 4278190080 15728
-0.0073258155 -0.074285701 0.16 4278190080 21465
-0.010167705 -0.071428552 0.15714285 4278190080 21458
-0.011214904 -0.079999961 0.16571426 4278190080 24704
-0.011215003 -0.079999976 0.16571426 4278190080 15702
-0.011428514 -0.080182023 0.16571426 4278190080 24699
-0.011428514 -0.071428552 0.15580657 4278190080 21441
-0.0085713714 -0.071428552 0.15862349 4278190080 21459
-0.011428514 -0.079999976 0.16600928 4278190080 15686
-0.011428514 -0.079999961 0.16600941 4278190080 24701
-0.0063631195 -0.074285701 0.16285712 4278190080 15727
-0.0085713714 -0.077662975 0.16571426 4278190080 15703
-0.014285657 -0.082857102 0.16503142 4278190080 24685
-0.0080719655 -0.077142835 0.16571426 4278190080 15726
-0.013162864 -0.071428552 0.15428571 4278190080 21440
-0.0076562022 -0.071428552 0.15999998 4278190080 15738
-0.0076561519 -0.071428552 0.16 4278190080 21466
-0.016195541 -0.085714251 0.16285712 4278190080 24679
-0.014285657 -0.082363389 0.16571426 4278190080 24688
-0.0085713714 -0.077142835 0.15932825 4278190080 21453
-0.0085713714 -0.077338234 0.15999998 4278190080 15699
-0.0085713714 -0.077338256 0.16 4278190080 21455
-0.0091094803 -0.074285701 0.15714285 4278190080 21456
-0.0083825057 -0.077142835 0.15999998 4278190080 15725
-0.0083824834 -0.077142835 0.16 4278190080 21464
-0.0085713714 -0.074285701 0.15766306 4278190080 21457
-0.013395797 -0.082857102 0.16285712 4278190080 24695
-0.011428514 -0.080630124 0.16285712 4278190080 24698
-0.010691547 -0.079999976 0.16285712 4278190080 15698
-0.010691494 -0.079999961 0.16285712 4278190080 24702
-0.014285657 -0.08360903 0.16285712 4278190080 24683
-0.011941846 -0.074285701 0.15428571 4278190080 21438
-0.0096135316 -0.077142835 0.15714285 4278190080 21452
-0.011428514 -0.074285701 0.15472491 4278190080 21439
-0.011428514 -0.080721661 0.15999998 4278190080 24697
-0.011428514 -0.080721661 0.16 4278190080 25494
-0.010595849 -0.079999976 0.15999998 4278190080 15700
-0.010595848 -0.079999976 0.16 4278190080 21454
-0.010595785 -0.079999961 0.15999998 4278190080 24703
-0.010595785 -0.079999961 0.16 4278190080 25497
-0.017142799 -0.086853348 0.15999998 4278190080 24660
-0.017142799 -0.086853355 0.16 4278190080 25469
-0.017142799 -0.082857102 0.14963384 4278190080 25472
-0.014285657 -0.082857102 0.1510879 4278190080 25481
-0.017142799 -0.083820112 0.15142858 4278190080 25473
-0.014285657 -0.082969256 0.15142858 4278190080 25480
-0.014160738 -0.082857102 0.15142858 4278190080 25486
-0.018439498 -0.082857102 0.14857143 4278190080 25470
-0.014285657 -0.079999976 0.15082756 4278190080 21421
-0.014285657 -0.079999961 0.15082757 4278190080 25485
-0.017142799 -0.079999976 0.14901471 4278190080 21396
-0.017142799 -0.079999961 0.14901473 4278190080 25477
-0.013656098 -0.079999976 0.15142858 4278190080 21434
-0.013656111 -0.079999961 0.15142858 4278190080 25490
-0.017832641 -0.079999976 0.14857143 4278190080 21391
-0.017832655 -0.079999961 0.14857143 4278190080 25475
-0.019291438 -0.085714251 0.15142858 4278190080 25462
-0.014285657 -0.083417542 0.15428571 4278190080 25482
-0.013674011 -0.082857102 0.15428571 4278190080 25487
-0.01992671 -0.085714251 0.14857143 4278190080 25459
-0.017142799 -0.085661791 0.15428571 4278190080 25474
-0.019999944 -0.085800819 0.14857143 4278190080 25458
-0.020000018 -0.085800737 0.14857143 4278190080 26989
-0.01722189 -0.085714251 0.15428571 4278190080 25464
-0.017142799 -0.085714251 0.15436846 4278190080 25465
-0.020000018 -0.085714251 0.14805409 4278190080 26988
-0.019999944 -0.085714251 0.14805354 4278190080 25460
-0.019999944 -0.086162053 0.15142858 4278190080 25461
-0.020000018 -0.086161986 0.15142858 4278190080 26990
-0.019999944 -0.082857102 0.14666027 4278190080 25471
-0.020000018 -0.082857102 0.14666033 4278190080 26994
-0.019999944 -0.079999961 0.14684774 4278190080 25476
-0.019999944 -0.079999976 0.1468477 4278190080 21394
-0.020000018 -0.079999976 0.14684775 4278190080 23622
-0.020000018 -0.079999961 0.14684777 4278190080 26995
-0.014285657 -0.077390596 0.15142858 4278190080 21419
-0.017142799 -0.077142835 0.14975846 4278190080 21395
-0.01437336 -0.077142835 0.15142858 4278190080 21420
-0.014285657 -0.077142835 0.15148288 4278190080 21422
-0.011428514 -0.079999961 0.15391798 4278190080 25491
-0.011428514 -0.079999976 0.15391809 4278190080 21435
-0.019999944 -0.086830512 0.15428571 4278190080 25463
-0.020000018 -0.086830467 0.15428571 4278190080 26991
-0.011428514 -0.080083378 0.15428571 4278190080 25492
-0.0113166 -0.079999976 0.15428571 4278190080 21449
-0.011316565 -0.079999961 0.15428571 4278190080 25495
-0.021007568 -0.085714251 0.14571428 4278190080 26987
-0.018799316 -0.077142835 0.14857143 4278190080 21392
-0.014285657 -0.083713114 0.15714285 4278190080 25483
-0.016513083 -0.085714251 0.15714285 4278190080 25478
-0.013373799 -0.082857102 0.15714285 4278190080 25488
-0.017142799 -0.08646331 0.15714285 4278190080 25466
-0.021678191 -0.088571385 0.15142858 4278190080 26983
-0.02171745 -0.088571385 0.14857143 4278190080 26982
-0.019999944 -0.077142835 0.14777169 4278190080 21393
-0.020000018 -0.077142835 0.1477717 4278190080 23623
-0.022857163 -0.082857102 0.1461454 4278190080 26974
-0.022857163 -0.083725646 0.14571428 4278190080 26973
-0.022857163 -0.079999976 0.14680882 4278190080 23609
-0.022857163 -0.079999961 0.14680883 4278190080 26975
-0.011428514 -0.077142835 0.15405376 4278190080 21436
-0.021529607 -0.088571385 0.15428571 4278190080 26984
-0.011267764 -0.077142835 0.15428571 4278190080 21450
-0.011428514 -0.08045692 0.15714285 4278190080 25493
-0.021746872 -0.088571385 0.14571428 4278190080 26981
-0.019999944 -0.075420156 0.14857143 4278190080 21397
-0.020000018 -0.075420193 0.14857143 4278190080 23624
-0.019999944 -0.087629773 0.15714285 4278190080 25467
-0.020000018 -0.08762975 0.15714285 4278190080 26992
-0.01089004 -0.079999976 0.15714285 4278190080 21451
-0.010889997 -0.079999961 0.15714285 4278190080 25496
-0.022857163 -0.085714251 0.14437577 4278190080 26972
-0.015986048 -0.074285701 0.15142858 4278190080 21423
-0.017142799 -0.074285701 0.15066928 4278190080 21399
-0.011428514 -0.076242775 0.15428571 4278190080 21437
-0.014285657 -0.074285701 0.15241827 4278190080 21424
-0.022857163 -0.077142835 0.14752725 4278190080 23610
-0.014285657 -0.083827995 0.15999998 4278190080 24682
-0.014285657 -0.083828002 0.16 4278190080 25484
-0.019999944 -0.074285701 0.14910819 4278190080 21398
-0.020000018 -0.074285701 0.14910822 4278190080 23626
-0.016171787 -0.085714251 0.15999998 4278190080 24680
-0.016171778 -0.085714251 0.16 4278190080 25479
-0.013239595 -0.082857102 0.15999998 4278190080 24696
-0.01323959 -0.082857102 0.16 4278190080 25489
