# .PCD v0.7 - Point Cloud Data file format
VERSION 0.7
FIELDS x y z rgb
SIZE 4 4 4 4
TYPE F F F U
COUNT 1 1 1 1
WIDTH 1047
HEIGHT 1
VIEWPOINT 0 0 0 1 0 0 0
POINTS 1047
DATA ascii
0.15738408 -0.090003014 0.14602727 4278190080
0.16345276 -0.083358571 0.1357235 4278190080
0.162019 -0.084129564 0.13808671 4278190080
0.16065386 -0.085404709 0.14038512 4278190080
0.16704008 -0.087368153 0.13573632 4278190080
0.16629805 -0.086351983 0.13683346 4278190080
0.16658726 -0.085237518 0.13475296 4278190080
0.16758858 -0.084526464 0.13460612 4278190080
0.16738404 -0.084308952 0.13491404 4278190080
0.16606265 -0.087705918 0.13733044 4278190080
0.16027923 -0.086359985 0.14335862 4278190080
0.16090691 -0.086547509 0.14547965 4278190080
0.16032982 -0.087717965 0.14650762 4278190080
0.15917094 -0.090087682 0.14857307 4278190080
0.16522419 -0.081976995 0.1371019 4278190080
0.16583957 -0.081902415 0.13717188 4278190080
0.16541992 -0.082047462 0.13785638 4278190080
0.16434152 -0.083274692 0.13969143 4278190080
0.16295224 -0.084372848 0.14201283 4278190080
0.16161209 -0.085832648 0.14428747 4278190080
0.16567871 -0.081792727 0.13741963 4278190080
0.15256976 -0.07108818 0.15208434 4278190080
0.15608256 -0.07057216 0.15178217 4278190080
0.1553124 -0.07343246 0.15326895 4278190080
0.18624941 -0.086346999 0.14808527 4278190080
0.18571502 -0.086073168 0.14539072 4278190080
0.18496083 -0.086749516 0.14478508 4278190080
0.18593611 -0.087301865 0.14867145 4278190080
0.18366125 -0.088507682 0.14702135 4278190080
0.18302131 -0.086760402 0.1478906 4278190080
0.18555667 -0.086586371 0.14921528 4278190080
0.18658037 -0.086451337 0.14924657 4278190080
0.20531327 -0.10455468 0.1515798 4278190080
0.20491992 -0.10175039 0.15196028 4278190080
0.20767836 -0.10443945 0.15318225 4278190080
0.20748255 -0.10156695 0.15324058 4278190080
0.20699896 -0.098614655 0.15237574 4278190080
0.2076751 -0.098560058 0.1526653 4278190080
0.20767228 -0.098993473 0.15270828 4278190080
0.20498534 -0.098787457 0.1515924 4278190080
0.20514973 -0.098375022 0.1512928 4278190080
0.20543814 -0.095690668 0.1505926 4278190080
0.207871 -0.095552079 0.15208454 4278190080
0.20593141 -0.092804119 0.14954664 4278190080
0.20854372 -0.092378631 0.15072514 4278190080
0.20839322 -0.092978045 0.15101926 4278190080
0.20598879 -0.092559516 0.14943306 4278190080
0.2070857 -0.08997637 0.14744787 4278190080
0.20973587 -0.089026347 0.14851929 4278190080
0.20950088 -0.089806512 0.14896469 4278190080
0.20742992 -0.089121163 0.14682095 4278190080
0.2083033 -0.08761441 0.14528914 4278190080
0.21131916 -0.085538894 0.14567508 4278190080
0.21069814 -0.087295488 0.14682518 4278190080
0.20932616 -0.085525453 0.14346559 4278190080
0.21081802 -0.083479971 0.14089595 4278190080
0.21151158 -0.081829846 0.13963923 4278190080
0.21249793 -0.082029447 0.14223292 4278190080
0.21278469 -0.082092084 0.14302307 4278190080
0.21182127 -0.084237963 0.14475586 4278190080
0.20948972 -0.085026354 0.14315946 4278190080
0.21039009 -0.10420446 0.15421866 4278190080
0.2103104 -0.10129176 0.15408756 4278190080
0.21050265 -0.09828496 0.15351267 4278190080
0.21037051 -0.100908 0.15395711 4278190080
0.2106321 -0.095299989 0.15304022 4278190080
0.21145575 -0.092074469 0.15143539 4278190080
0.21096888 -0.093986817 0.15238465 4278190080
0.21247134 -0.088783175 0.14951743 4278190080
0.21201891 -0.090391114 0.15038444 4278190080
0.21367739 -0.085426033 0.14728884 4278190080
0.21312562 -0.087213002 0.14833076 4278190080
0.21491492 -0.082058154 0.14500883 4278190080
0.21424143 -0.084102243 0.14626838 4278190080
0.21067962 -0.10124013 0.1540762 4278190080
0.21406403 -0.10363702 0.15368597 4278190080
0.21179394 -0.10400797 0.15417285 4278190080
0.21399911 -0.10071912 0.15353073 4278190080
0.21383493 -0.097835548 0.15353735 4278190080
0.21482104 -0.094498552 0.15123229 4278190080
0.21518181 -0.094429828 0.15107907 4278190080
0.21511319 -0.095218547 0.15125893 4278190080
0.21388127 -0.097475387 0.15343107 4278190080
0.21254955 -0.095050849 0.15312825 4278190080
0.2139972 -0.091714047 0.15131693 4278190080
0.21531627 -0.091442443 0.15059842 4278190080
0.21544652 -0.088457115 0.15012471 4278190080
0.21644667 -0.085171223 0.14823221 4278190080
0.21564782 -0.087827824 0.14974676 4278190080
0.21735346 -0.081917539 0.14649156 4278190080
0.21671999 -0.084395766 0.14772572 4278190080
0.21473867 -0.10058858 0.15329708 4278190080
0.2179382 -0.10300031 0.15282689 4278190080
0.21525341 -0.10338971 0.15301923 4278190080
0.21800718 -0.10003614 0.15245317 4278190080
0.21645957 -0.097237237 0.15165655 4278190080
0.21835582 -0.096975379 0.15162329 4278190080
0.21811447 -0.099359393 0.1522214 4278190080
0.21410255 -0.097794272 0.15349914 4278190080
0.21859597 -0.093952097 0.15097027 4278190080
0.21789713 -0.09107139 0.15043841 4278190080
0.21881665 -0.090935066 0.15034939 4278190080
0.21868525 -0.092235498 0.15067492 4278190080
0.2166186 -0.088312678 0.15023915 4278190080
0.21927479 -0.087836474 0.14934097 4278190080
0.21913534 -0.084917136 0.14909567 4278190080
0.21928097 -0.084893964 0.14906968 4278190080
0.21926734 -0.085193656 0.14911808 4278190080
0.22018413 -0.081641592 0.14733508 4278190080
0.21936697 -0.09990555 0.15287338 4278190080
0.22073704 -0.099795029 0.15346105 4278190080
0.22072218 -0.10060219 0.15355654 4278190080
0.22069886 -0.10274857 0.15378453 4278190080
0.22086896 -0.096809134 0.15298466 4278190080
0.2211747 -0.093763225 0.15222482 4278190080
0.22136939 -0.090755075 0.15164591 4278190080
0.22121717 -0.0929197 0.15208192 4278190080
0.22153251 -0.087613761 0.14999388 4278190080
0.22211294 -0.087557793 0.15017174 4278190080
0.22205521 -0.087763935 0.15028249 4278190080
0.22270019 -0.084292985 0.14800783 4278190080
0.22324735 -0.084225379 0.14805998 4278190080
0.22316733 -0.08462555 0.14822371 4278190080
0.22362672 -0.080985658 0.14587075 4278190080
0.22427967 -0.081488259 0.14616451 4278190080
0.22064289 -0.081577532 0.14732173 4278190080
0.22211981 -0.099752814 0.1545933 4278190080
0.22295558 -0.099730507 0.15530257 4278190080
0.22276001 -0.10273846 0.15588282 4278190080
0.22309373 -0.096742466 0.15481602 4278190080
0.22298494 -0.099307775 0.15521793 4278190080
0.22336884 -0.093706593 0.15410604 4278190080
0.22381712 -0.090611354 0.15311353 4278190080
0.22354876 -0.092131481 0.15367822 4278190080
0.22452727 -0.087425619 0.15169381 4278190080
0.22447491 -0.087624483 0.15179543 4278190080
0.22561674 -0.08410877 0.14965524 4278190080
0.22555049 -0.084218264 0.14977105 4278190080
0.22689039 -0.082756609 0.14749637 4278190080
0.22468679 -0.1027747 0.15820055 4278190080
0.22497787 -0.099733755 0.15746461 4278190080
0.22528617 -0.096686937 0.1567003 4278190080
0.22520424 -0.097693749 0.15692087 4278190080
0.22557117 -0.093647666 0.15597369 4278190080
0.22607538 -0.090533115 0.15489005 4278190080
0.22590239 -0.091507234 0.15525343 4278190080
0.22493832 -0.087424807 0.1521218 4278190080
0.2265923 -0.087414213 0.15378572 4278190080
0.22575504 -0.084123582 0.14991651 4278190080
0.22906561 -0.083619043 0.14948969 4278190080
0.22904786 -0.083514571 0.14865853 4278190080
0.22944783 -0.083630085 0.14887916 4278190080
0.22746806 -0.084171154 0.15209572 4278190080
0.22677267 -0.086588629 0.15342356 4278190080
0.22788769 -0.083471477 0.15136193 4278190080
0.22468685 -0.1027747 0.15820061 4278190080
0.22497796 -0.09973374 0.15746464 4278190080
0.22694577 -0.10269627 0.15997611 4278190080
0.22712474 -0.099694066 0.15942301 4278190080
0.22520432 -0.097693808 0.15692092 4278190080
0.22528625 -0.096686937 0.15670036 4278190080
0.22629938 -0.096691348 0.15780468 4278190080
0.22721036 -0.096724175 0.15902223 4278190080
0.22728454 -0.093758292 0.1586401 4278190080
0.22726278 -0.094894655 0.15877585 4278190080
0.22557124 -0.093647666 0.15597375 4278190080
0.22590247 -0.091507263 0.15525343 4278190080
0.22607547 -0.090533115 0.15489005 4278190080
0.22660826 -0.090588145 0.15588088 4278190080
0.22752838 -0.090733163 0.15798081 4278190080
0.22793408 -0.087652691 0.15705793 4278190080
0.22786161 -0.087977327 0.15720274 4278190080
0.22659241 -0.087414198 0.15378575 4278190080
0.2294479 -0.083630115 0.14887919 4278190080
0.230607 -0.083428085 0.14963262 4278190080
0.22906564 -0.083619073 0.14948989 4278190080
0.22677276 -0.086588703 0.15342362 4278190080
0.22746815 -0.084171154 0.15209572 4278190080
0.22831753 -0.084407732 0.15483256 4278190080
0.22856301 -0.084494993 0.15577041 4278190080
0.23180026 -0.082994759 0.15045565 4278190080
0.22788775 -0.083471492 0.15136199 4278190080
0.23019017 -0.082467228 0.1529859 4278190080
0.22879671 -0.083535582 0.15531106 4278190080
0.22745757 -0.10271271 0.1606444 4278190080
0.22890541 -0.099780761 0.16197874 4278190080
0.22887835 -0.10016186 0.16205584 4278190080
0.2286032 -0.10282551 0.16273277 4278190080
0.22902039 -0.096800752 0.16153006 4278190080
0.22777806 -0.093779691 0.15932803 4278190080
0.22907455 -0.093841806 0.16118054 4278190080
0.22920653 -0.090855457 0.16070406 4278190080
0.22919087 -0.091135576 0.16075395 4278190080
0.22800738 -0.087680928 0.15735491 4278190080
0.22942707 -0.087838985 0.16008322 4278190080
0.22929054 -0.084780112 0.15875603 4278190080
0.22961943 -0.084832206 0.15950833 4278190080
0.23184451 -0.080956176 0.15432018 4278190080
0.23400719 -0.081289455 0.15216991 4278190080
0.23340437 -0.080583848 0.15307212 4278190080
0.22967148 -0.081503049 0.15627807 4278190080
0.23001529 -0.081755087 0.15860111 4278190080
0.22970973 -0.083628982 0.15925686 4278190080
0.22898395 -0.09979827 0.1621976 4278190080
0.22993071 -0.10012873 0.16576694 4278190080
0.22983904 -0.10060587 0.16595609 4278190080
0.22897959 -0.10305451 0.16491051 4278190080
0.22960611 -0.10318126 0.16655768 4278190080
0.22958255 -0.096935481 0.16317092 4278190080
0.23045185 -0.09700831 0.16465573 4278190080
0.2308767 -0.093921229 0.16370155 4278190080
0.23062402 -0.095058374 0.16420706 4278190080
0.22936746 -0.090861425 0.16092034 4278190080
0.23112395 -0.090894952 0.16303681 4278190080
0.23125507 -0.087909311 0.16256164 4278190080
0.23123299 -0.088216245 0.16262434 4278190080
0.23140647 -0.08491677 0.16205378 4278190080
0.23423189 -0.080397412 0.15249661 4278190080
0.23048106 -0.081884459 0.16009906 4278190080
0.23143809 -0.081965521 0.16174078 4278190080
0.23017819 -0.10015834 0.16625886 4278190080
0.23182742 -0.10017544 0.16813342 4278190080
0.23149964 -0.10322911 0.16892929 4278190080
0.23247063 -0.097012915 0.16682304 4278190080
0.23205082 -0.098935932 0.16766573 4278190080
0.23209092 -0.0939667 0.16533758 4278190080
0.23278946 -0.093962446 0.16604193 4278190080
0.23292159 -0.090975925 0.16556485 4278190080
0.23279248 -0.093069702 0.16595756 4278190080
0.2314208 -0.087917805 0.16280268 4278190080
0.23312047 -0.087966874 0.16497923 4278190080
0.23332976 -0.084954239 0.16437672 4278190080
0.23330213 -0.085496001 0.16446905 4278190080
0.2332582 -0.082038693 0.16423211 4278190080
0.23428094 -0.1029701 0.16985263 4278190080
0.2340623 -0.10010533 0.16994824 4278190080
0.23471528 -0.096939325 0.16862191 4278190080
0.23438755 -0.098185837 0.16925718 4278190080
0.2349052 -0.093933418 0.16805093 4278190080
0.23494177 -0.090978473 0.16771825 4278190080
0.23494639 -0.090978369 0.16772236 4278190080
0.23510535 -0.087983131 0.16720192 4278190080
0.23494643 -0.090974391 0.16772194 4278190080
0.23379721 -0.084956355 0.164887 4278190080
0.23518474 -0.085015349 0.16681127 4278190080
0.23510349 -0.082054257 0.1663025 4278190080
0.23522742 -0.082060277 0.16648015 4278190080
0.23719881 -0.10266384 0.17055346 4278190080
0.23673052 -0.099885322 0.17105617 4278190080
0.23695874 -0.096866183 0.17042275 4278190080
0.23684026 -0.098289631 0.17073886 4278190080
0.23711139 -0.093873151 0.16991265 4278190080
0.23711118 -0.090932362 0.16965155 4278190080
0.23716015 -0.087975204 0.16931061 4278190080
0.23711845 -0.089011699 0.16946931 4278190080
0.23693065 -0.085114129 0.16942368 4278190080
0.23682863 -0.082209133 0.16932881 4278190080
0.23760492 -0.10300241 0.17361464 4278190080
0.2371323 -0.10019897 0.1739188 4278190080
0.23922838 -0.09678407 0.17218097 4278190080
0.2391468 -0.097316742 0.17235889 4278190080
0.23785855 -0.099158458 0.17458449 4278190080
0.23956265 -0.093727693 0.17137443 4278190080
0.2392949 -0.090879917 0.17154978 4278190080
0.23797089 -0.087980762 0.17021032 4278190080
0.23898238 -0.088047639 0.17179866 4278190080
0.23751028 -0.085176669 0.17052208 4278190080
0.23842405 -0.085300274 0.17244814 4278190080
0.23769262 -0.082336925 0.17123526 4278190080
0.23817003 -0.082447805 0.17260131 4278190080
0.15948702 -0.071273059 0.10860871 4278190080
0.1618499 -0.070716284 0.11017548 4278190080
0.16211845 -0.070153594 0.10969561 4278190080
0.16006765 -0.070160113 0.10758039 4278190080
0.16063727 -0.068415664 0.10651371 4278190080
0.16292989 -0.067341574 0.10814679 4278190080
0.1630747 -0.066882752 0.10787429 4278190080
0.16109155 -0.066865958 0.10564885 4278190080
0.16164102 -0.064480312 0.10455741 4278190080
0.16370147 -0.063649461 0.10599652 4278190080
0.16184629 -0.063664809 0.10415651 4278190080
0.16392504 -0.063648611 0.106226 4278190080
0.16420335 -0.0701335 0.11174166 4278190080
0.16486447 -0.066840909 0.10943899 4278190080
0.16525619 -0.066831119 0.10977654 4278190080
0.16420905 -0.070131533 0.11174561 4278190080
0.16528307 -0.066712417 0.10972287 4278190080
0.16605522 -0.063614629 0.10821152 4278190080
0.16653617 -0.069309816 0.11334616 4278190080
0.16735782 -0.066806965 0.11180861 4278190080
0.16761568 -0.065931998 0.11131819 4278190080
0.16822079 -0.063568451 0.11013976 4278190080
0.16886678 -0.068514563 0.1149434 4278190080
0.16940258 -0.066802472 0.11393362 4278190080
0.16994812 -0.065150321 0.11291362 4278190080
0.17040895 -0.063514404 0.1120308 4278190080
0.17121643 -0.067859113 0.11652268 4278190080
0.17155586 -0.066760562 0.11588176 4278190080
0.17227854 -0.064353429 0.11451106 4278190080
0.1725263 -0.06348481 0.11403735 4278190080
0.17355749 -0.067140505 0.11811006 4278190080
0.17368019 -0.066728525 0.11787704 4278190080
0.17441168 -0.063481584 0.11600344 4278190080
0.17456837 -0.063481279 0.11616673 4278190080
0.17473985 -0.066719264 0.11892417 4278190080
0.17588182 -0.0663004 0.11971307 4278190080
0.17668262 -0.063452788 0.11817834 4278190080
0.23914678 -0.097316816 0.17235883 4278190080
0.23922838 -0.09678407 0.17218094 4278190080
0.24010494 -0.09677805 0.17306037 4278190080
0.24113704 -0.096826665 0.17452796 4278190080
0.24014708 -0.098053984 0.17622139 4278190080
0.23785853 -0.099158488 0.17458446 4278190080
0.24197996 -0.093594491 0.17289163 4278190080
0.24144764 -0.096302144 0.17398436 4278190080
0.23956262 -0.093727693 0.1713744 4278190080
0.2392949 -0.090879917 0.17154975 4278190080
0.24141657 -0.090848908 0.17354943 4278190080
0.23898238 -0.088047653 0.1717986 4278190080
0.24087922 -0.088094331 0.17416476 4278190080
0.23842405 -0.085300259 0.17244808 4278190080
0.24034423 -0.085338905 0.17477639 4278190080
0.23817001 -0.082447805 0.17260125 4278190080
0.24010842 -0.082480133 0.17489982 4278190080
0.24380484 -0.096606828 0.17563663 4278190080
0.24250022 -0.097424172 0.17779739 4278190080
0.24424697 -0.093513258 0.17465414 4278190080
0.24391367 -0.096503563 0.17545332 4278190080
0.24357456 -0.09080527 0.17548962 4278190080
0.24279055 -0.08813592 0.17650737 4278190080
0.24274854 -0.087926723 0.17655616 4278190080
0.24133055 -0.085391104 0.17622401 4278190080
0.24209487 -0.085436031 0.17738108 4278190080
0.24148835 -0.082552686 0.17692187 4278190080
0.24182814 -0.082587942 0.17755497 4278190080
0.24333812 -0.097025 0.17839555 4278190080
0.24652964 -0.093426563 0.17639096 4278190080
0.24629065 -0.096050166 0.17700656 4278190080
0.24478361 -0.09628097 0.17943923 4278190080
0.24599037 -0.09067256 0.17700921 4278190080
0.24527447 -0.08856944 0.17796831 4278190080
0.24303088 -0.088126369 0.1766869 4278190080
0.24503933 -0.088060968 0.17829959 4278190080
0.24387945 -0.085521445 0.17993049 4278190080
0.24328384 -0.085240044 0.18085887 4278190080
0.24155635 -0.082975209 0.18027952 4278190080
0.2488669 -0.093320958 0.17803876 4278190080
0.24876225 -0.096292265 0.17847048 4278190080
0.24706186 -0.095099822 0.1810862 4278190080
0.24844177 -0.090527572 0.17847098 4278190080
0.24771042 -0.088549308 0.17946596 4278190080
0.24746044 -0.087926395 0.1798106 4278190080
0.24642147 -0.085345156 0.18124439 4278190080
0.24562663 -0.084534369 0.18244456 4278190080
0.24888824 -0.096290775 0.17854799 4278190080
0.25121191 -0.096153043 0.17993322 4278190080
0.25118896 -0.096214749 0.17997554 4278190080
0.25113603 -0.096179254 0.18005696 4278190080
0.2508904 -0.093323313 0.18019617 4278190080
0.24957834 -0.095672965 0.18250744 4278190080
0.25066894 -0.092386685 0.18046749 4278190080
0.25000498 -0.090568922 0.18044567 4278190080
0.25026855 -0.090597853 0.18094915 4278190080
0.24954888 -0.087906845 0.1818644 4278190080
0.24836381 -0.085376106 0.1835366 4278190080
0.24800058 -0.0840578 0.18400086 4278190080
0.25361606 -0.096024387 0.18147194 4278190080
0.25363502 -0.096267991 0.1814636 4278190080
0.25216535 -0.096776202 0.18386063 4278190080
0.25183341 -0.096553564 0.18370429 4278190080
0.25356433 -0.095748343 0.18153033 4278190080
0.25197265 -0.093289375 0.18107536 4278190080
0.25308976 -0.093265466 0.18206912 4278190080
0.25243536 -0.090551227 0.18287504 4278190080
0.25108138 -0.088078886 0.18482253 4278190080
0.2509329 -0.087704957 0.18502682 4278190080
0.24889109 -0.085397877 0.18426277 4278190080
0.25440449 -0.098814227 0.18139598 4278190080
0.25704843 -0.098480575 0.18159467 4278190080
0.25655007 -0.099776685 0.18250734 4278190080
0.2560606 -0.10176233 0.18346694 4278190080
0.2544724 -0.10206645 0.18415415 4278190080
0.25403902 -0.099260807 0.18448281 4278190080
0.25628957 -0.09580265 0.18257123 4278190080
0.25362912 -0.093197487 0.18211028 4278190080
0.25654182 -0.092774682 0.18189853 4278190080
0.25343105 -0.090378836 0.18258613 4278190080
0.25645971 -0.089862533 0.18177053 4278190080
0.25392342 -0.087521896 0.18349332 4278190080
0.25578994 -0.087153763 0.18260217 4278190080
0.25460872 -0.085487045 0.18434465 4278190080
0.25232679 -0.085207202 0.18641055 4278190080
0.25357839 -0.084977768 0.18594849 4278190080
0.25293884 -0.084518857 0.18693152 4278190080
0.25269586 -0.095142573 0.15047669 4278190080
0.25514179 -0.095195763 0.1519649 4278190080
0.25535339 -0.094853237 0.1515958 4278190080
0.25276399 -0.095045865 0.15035909 4278190080
0.25129077 -0.096124485 0.15281287 4278190080
0.25400564 -0.098157465 0.15404639 4278190080
0.25396374 -0.098273754 0.15412384 4278190080
0.25003797 -0.098227054 0.15500486 4278190080
0.25069773 -0.098865271 0.15527412 4278190080
0.24948275 -0.099120706 0.15597527 4278190080
0.25528318 -0.091537684 0.14601538 4278190080
0.25772798 -0.091582358 0.14750463 4278190080
0.25812316 -0.090955153 0.14681646 4278190080
0.25565749 -0.091105141 0.14537764 4278190080
0.25397253 -0.09321405 0.14826217 4278190080
0.25635952 -0.092834175 0.14980602 4278190080
0.256455 -0.088838197 0.14389995 4278190080
0.25735423 -0.087875061 0.14465517 4278190080
0.25665367 -0.087820582 0.14349169 4278190080
0.25826117 -0.087967187 0.14633021 4278190080
0.25623617 -0.087226711 0.14410719 4278190080
0.25488082 -0.085492916 0.14612272 4278190080
0.2569651 -0.085966185 0.14822683 4278190080
0.25610524 -0.085540958 0.14778975 4278190080
0.2565493 -0.085618474 0.14886147 4278190080
0.25443602 -0.085300602 0.14681742 4278190080
0.25529569 -0.085001417 0.15081328 4278190080
0.25279665 -0.084557436 0.14937538 4278190080
0.25166124 -0.083665289 0.15111342 4278190080
0.25410876 -0.083521649 0.15258169 4278190080
0.25167325 -0.080720864 0.15083264 4278190080
0.25363684 -0.080744483 0.15309002 4278190080
0.25185916 -0.077715687 0.15026818 4278190080
0.25383425 -0.07773535 0.15250684 4278190080
0.2564733 -0.09486258 0.1528517 4278190080
0.25412884 -0.098248601 0.15410259 4278190080
0.25705102 -0.097908989 0.15454832 4278190080
0.25742993 -0.09483777 0.15366909 4278190080
0.25795037 -0.091097847 0.14774352 4278190080
0.25713423 -0.091569453 0.15054885 4278190080
0.25780088 -0.091768742 0.15280277 4278190080
0.25747427 -0.094413877 0.15356034 4278190080
0.25820532 -0.088254079 0.14850235 4278190080
0.25790867 -0.088696882 0.15163222 4278190080
0.25792813 -0.088784449 0.15233383 4278190080
0.25799268 -0.086903922 0.15206355 4278190080
0.25806597 -0.085796535 0.15184811 4278190080
0.25768414 -0.08463192 0.15235579 4278190080
0.25729701 -0.083121993 0.15284114 4278190080
0.25658458 -0.080427997 0.15374221 4278190080
0.25645623 -0.077531405 0.15369029 4278190080
0.25817356 -0.094768256 0.15391392 4278190080
0.25976452 -0.097509608 0.15430838 4278190080
0.26049975 -0.097419292 0.15438288 4278190080
0.2601231 -0.094609261 0.15473634 4278190080
0.25980896 -0.091776997 0.15498766 4278190080
0.26024848 -0.088684812 0.15400943 4278190080
0.26047412 -0.087218583 0.15351799 4278190080
0.26074535 -0.085572772 0.15293795 4278190080
0.25798008 -0.083033659 0.15287559 4278190080
0.26078245 -0.082619622 0.15261595 4278190080
0.25824931 -0.080189131 0.15364332 4278190080
0.26039305 -0.079813965 0.15299 4278190080
0.25745723 -0.077402838 0.1537479 4278190080
0.25988302 -0.077049263 0.15356065 4278190080
0.26336259 -0.097132109 0.15517342 4278190080
0.26256937 -0.094465993 0.15620631 4278190080
0.26217344 -0.091662034 0.15659136 4278190080
0.26243553 -0.088631183 0.1559025 4278190080
0.26282477 -0.086570121 0.15509644 4278190080
0.26308933 -0.085464925 0.15457493 4278190080
0.26233295 -0.082365796 0.15227996 4278190080
0.26389942 -0.083156005 0.15307288 4278190080
0.26456103 -0.082015939 0.1519127 4278190080
0.26164466 -0.079574436 0.15244938 4278190080
0.26440632 -0.079129107 0.15190382 4278190080
0.26173645 -0.076739095 0.15310626 4278190080
0.26366597 -0.076444119 0.1528504 4278190080
0.26601863 -0.096916348 0.15630169 4278190080
0.26563704 -0.094107971 0.15666305 4278190080
0.26554227 -0.091199957 0.15655641 4278190080
0.26454511 -0.088328667 0.1557785 4278190080
0.26571205 -0.089872569 0.1561666 4278190080
0.26688555 -0.087795407 0.15410362 4278190080
0.26546347 -0.085346624 0.15616249 4278190080
0.26627967 -0.082725905 0.15462312 4278190080
0.26720959 -0.081802748 0.15305269 4278190080
0.26599705 -0.078906551 0.15185356 4278190080
0.26755521 -0.080789879 0.15240964 4278190080
0.26780909 -0.078655288 0.15181357 4278190080
0.26626211 -0.076061666 0.15261871 4278190080
0.26708955 -0.075963125 0.1527262 4278190080
0.27140933 -0.095584624 0.15163852 4278190080
0.27338296 -0.095048793 0.14955638 4278190080
0.27058834 -0.092799954 0.15172486 4278190080
0.27230942 -0.09227816 0.14948507 4278190080
0.27052775 -0.096047528 0.1544054 4278190080
0.27054599 -0.096053965 0.1543767 4278190080
0.26910859 -0.093308382 0.15411533 4278190080
0.27027836 -0.096146442 0.15481333 4278190080
0.26898223 -0.096571811 0.1567526 4278190080
0.26799911 -0.093796737 0.15673767 4278190080
0.27273911 -0.089675225 0.15029989 4278190080
0.27126798 -0.090170369 0.15269865 4278190080
0.27068347 -0.090125345 0.15363012 4278190080
0.26929075 -0.090468682 0.15482877 4278190080
0.26663429 -0.091042325 0.15648429 4278190080
0.26713905 -0.087758407 0.15408383 4278190080
0.27043369 -0.087271385 0.15377642 4278190080
0.26901349 -0.08489798 0.15583889 4278190080
0.26897964 -0.084833607 0.15588729 4278190080
0.26897839 -0.084640175 0.15587203 4278190080
0.26886925 -0.081931487 0.15580606 4278190080
0.2698141 -0.079467118 0.15407476 4278190080
0.27014259 -0.078551143 0.15346777 4278190080
0.27049333 -0.075488977 0.1526342 4278190080
0.27053335 -0.096059464 0.15440635 4278190080
0.27332172 -0.089818738 0.15403207 4278190080
0.27351919 -0.089381464 0.15084033 4278190080
0.27499199 -0.088307694 0.15197076 4278190080
0.27361178 -0.089471839 0.15428339 4278190080
0.27293408 -0.087109588 0.15515845 4278190080
0.27160931 -0.086055048 0.1571853 4278190080
0.27049458 -0.085012287 0.15887691 4278190080
0.26917198 -0.081986353 0.15655288 4278190080
0.27052122 -0.082062736 0.15857178 4278190080
0.27214006 -0.078637004 0.15567651 4278190080
0.27219734 -0.078543246 0.15557662 4278190080
0.2709212 -0.080989793 0.15783641 4278190080
0.2720274 -0.07531552 0.15290552 4278190080
0.27330244 -0.075868413 0.15357003 4278190080
0.25655001 -0.099776685 0.18250734 4278190080
0.25704837 -0.098480605 0.18159464 4278190080
0.25727281 -0.09865503 0.18318805 4278190080
0.25769785 -0.10160095 0.18623009 4278190080
0.25777259 -0.10187291 0.18613485 4278190080
0.2560606 -0.10176233 0.18346694 4278190080
0.25655794 -0.099121049 0.18605664 4278190080
0.25628957 -0.095802635 0.1825712 4278190080
0.25634044 -0.095877185 0.18320489 4278190080
0.2565901 -0.096289679 0.18667626 4278190080
0.25654176 -0.092774682 0.18189853 4278190080
0.25656277 -0.0930347 0.18394327 4278190080
0.25647652 -0.093465835 0.18720451 4278190080
0.25645971 -0.089862563 0.1817705 4278190080
0.25712696 -0.090173781 0.18489534 4278190080
0.25702396 -0.09036988 0.1863111 4278190080
0.25653619 -0.093047962 0.18732962 4278190080
0.25578988 -0.087153777 0.18260214 4278190080
0.25595212 -0.087409377 0.18476084 4278190080
0.25590762 -0.088420659 0.18792479 4278190080
0.25568515 -0.087850526 0.18790932 4278190080
0.25460866 -0.085486986 0.18434462 4278190080
0.25357839 -0.084977753 0.18594843 4278190080
0.25335723 -0.085150011 0.18705431 4278190080
0.25293878 -0.084518857 0.18693152 4278190080
0.25778475 -0.10188266 0.18622357 4278190080
0.25686941 -0.090614438 0.18804954 4278190080
0.24401654 -0.09364856 0.13184895 4278190080
0.24043421 -0.091451384 0.13198926 4278190080
0.24150221 -0.093091398 0.13042562 4278190080
0.24242742 -0.09146475 0.13419844 4278190080
0.24050045 -0.088488199 0.13161997 4278190080
0.24241354 -0.088529252 0.13395987 4278190080
0.24060662 -0.086498596 0.1312734 4278190080
0.24242017 -0.085586585 0.13368787 4278190080
0.24138921 -0.085504934 0.13196371 4278190080
0.2396131 -0.082914203 0.13254496 4278190080
0.24032572 -0.084431052 0.13153927 4278190080
0.24127638 -0.083041623 0.13529229 4278190080
0.24087909 -0.081878051 0.13582474 4278190080
0.23940803 -0.080381989 0.13523993 4278190080
0.23853827 -0.080345422 0.13403714 4278190080
0.24018453 -0.080478653 0.13681212 4278190080
0.23220895 -0.082912929 0.14731812 4278190080
0.2338319 -0.082674138 0.14717516 4278190080
0.2334957 -0.084151663 0.14784472 4278190080
0.2306073 -0.083428055 0.14963283 4278190080
0.2294479 -0.083630174 0.14887922 4278190080
0.22957423 -0.083443359 0.14866041 4278190080
0.23202594 -0.083298281 0.15012151 4278190080
0.23805229 -0.079020217 0.13469729 4278190080
0.23762883 -0.077718854 0.1352596 4278190080
0.23888688 -0.078537643 0.13871682 4278190080
0.23859367 -0.078023225 0.13864583 4278190080
0.23869081 -0.078054011 0.13898775 4278190080
0.23071168 -0.081608176 0.14667666 4278190080
0.23134501 -0.079891212 0.14551049 4278190080
0.23384775 -0.079728387 0.14688826 4278190080
0.23180024 -0.082994804 0.15045565 4278190080
0.24659486 -0.094677061 0.13321187 4278190080
0.24559979 -0.094011404 0.13474546 4278190080
0.24428947 -0.093833409 0.13197745 4278190080
0.24474663 -0.092396148 0.13596733 4278190080
0.24323039 -0.091488369 0.13523017 4278190080
0.2443113 -0.091515847 0.13658594 4278190080
0.24371578 -0.088631786 0.13613303 4278190080
0.24403828 -0.088669889 0.13676982 4278190080
0.24378151 -0.085798502 0.13677363 4278190080
0.24382336 -0.085803851 0.13685937 4278190080
0.24178632 -0.083079576 0.13612634 4278190080
0.24284099 -0.083203048 0.13820037 4278190080
0.24215008 -0.080501512 0.13906625 4278190080
0.23633011 -0.0825129 0.14856055 4278190080
0.23605326 -0.085026801 0.14922713 4278190080
0.23456109 -0.083124354 0.15144628 4278190080
0.24141715 -0.079211935 0.14012498 4278190080
0.24067663 -0.07806994 0.14120892 4278190080
0.23603682 -0.079673976 0.14877775 4278190080
0.23400719 -0.08128947 0.15216991 4278190080
0.24748224 -0.094582818 0.13718139 4278190080
0.24682978 -0.094118796 0.13687973 4278190080
0.24926022 -0.096346118 0.13449223 4278190080
0.24724858 -0.094143786 0.13751639 4278190080
0.24575761 -0.091718189 0.13968702 4278190080
0.24594216 -0.08871413 0.1391248 4278190080
0.24571733 -0.085851476 0.13923024 4278190080
0.24502361 -0.083150923 0.14010048 4278190080
0.24411534 -0.081122681 0.14137435 4278190080
0.24341127 -0.080586195 0.14105639 4278190080
0.24377479 -0.080642328 0.14187679 4278190080
0.23805903 -0.082588322 0.15097317 4278190080
0.24261853 -0.078100994 0.1435017 4278190080
0.23750889 -0.079789259 0.1512289 4278190080
0.23423186 -0.080397427 0.15249664 4278190080
0.24929681 -0.096385233 0.13450636 4278190080
0.24907891 -0.096823595 0.13768549 4278190080
0.24967048 -0.096949272 0.13928731 4278190080
0.24909404 -0.094208188 0.13996641 4278190080
0.24821629 -0.091570713 0.14113699 4278190080
0.24858736 -0.088502146 0.14027019 4278190080
0.24803388 -0.085753143 0.14091195 4278190080
0.24708427 -0.083141044 0.14219972 4278190080
0.24671942 -0.082340524 0.14271265 4278190080
0.24590966 -0.080606729 0.1438548 4278190080
0.24531396 -0.07787171 0.1445654 4278190080
0.25042823 -0.097175024 0.14184481 4278190080
0.25030801 -0.094352089 0.14236921 4278190080
0.25061178 -0.094385333 0.14294875 4278190080
0.25077358 -0.097269706 0.142946 4278190080
0.25065827 -0.093395315 0.14278641 4278190080
0.2510944 -0.091277756 0.14190039 4278190080
0.25135022 -0.088249065 0.14122191 4278190080
0.25041142 -0.085633203 0.14249218 4278190080
0.2493934 -0.084073171 0.14398499 4278190080
0.24752593 -0.083187506 0.14302757 4278190080
0.24875894 -0.083264515 0.14492857 4278190080
0.2480405 -0.080572449 0.14583951 4278190080
0.24776693 -0.077726059 0.14602461 4278190080
0.25146151 -0.097544007 0.14580557 4278190080
0.25194389 -0.09623298 0.14637914 4278190080
0.25287801 -0.094304346 0.14471251 4278190080
0.25103423 -0.097881749 0.14798146 4278190080
0.25313044 -0.093642227 0.14424962 4278190080
0.25392336 -0.091002263 0.14274612 4278190080
0.25237101 -0.088151567 0.14154175 4278190080
0.25408861 -0.089369766 0.14233667 4278190080
0.25416672 -0.087977894 0.142088 4278190080
0.25379294 -0.087193199 0.14261663 4278190080
0.25277075 -0.085520029 0.14410412 4278190080
0.25193301 -0.084826499 0.1453833 4278190080
0.25027165 -0.083443277 0.14791965 4278190080
0.249925 -0.080623366 0.14822587 4278190080
0.24989644 -0.077692322 0.14801139 4278190080
0.25278601 -0.094640836 0.14723277 4278190080
0.25276399 -0.095045865 0.15035915 4278190080
0.25269586 -0.095142558 0.15047669 4278190080
0.2508758 -0.098002747 0.14875492 4278190080
0.25011685 -0.098471224 0.15159607 4278190080
0.25129083 -0.09612444 0.15281293 4278190080
0.24965945 -0.098922983 0.1546243 4278190080
0.25003803 -0.098227054 0.15500489 4278190080
0.24948278 -0.099120691 0.15597527 4278190080
0.25528324 -0.091537669 0.14601541 4278190080
0.25565749 -0.091105141 0.14537767 4278190080
0.25397253 -0.093214035 0.14826217 4278190080
0.256455 -0.088838197 0.14389998 4278190080
0.25665367 -0.087820567 0.14349169 4278190080
0.25623623 -0.087226696 0.14410722 4278190080
0.25488082 -0.085492916 0.14612275 4278190080
0.25443602 -0.085300617 0.14681745 4278190080
0.25279665 -0.084557451 0.14937541 4278190080
0.25036862 -0.083455913 0.14812037 4278190080
0.2516613 -0.083665259 0.15111351 4278190080
0.25022098 -0.080634542 0.14862736 4278190080
0.25167325 -0.080720864 0.15083267 4278190080
0.25184116 -0.077714391 0.15023912 4278190080
0.25185916 -0.077715687 0.15026821 4278190080
0.15594245 -0.091203339 0.15383905 4278190080
0.15433168 -0.088865526 0.15620959 4278190080
0.15706734 -0.091499254 0.15732875 4278190080
0.15429203 -0.088833384 0.15627047 4278190080
0.15708889 -0.091509417 0.15743041 4278190080
0.15632878 -0.088831872 0.15840918 4278190080
0.1550689 -0.087665878 0.16032156 4278190080
0.15259039 -0.087372728 0.15886426 4278190080
0.1514786 -0.086865477 0.16059884 4278190080
0.15360281 -0.086833462 0.1625942 4278190080
0.15338238 -0.086575329 0.16292411 4278190080
0.15089297 -0.086201958 0.16147721 4278190080
0.14920938 -0.08513312 0.16407716 4278190080
0.15167776 -0.085352272 0.16554382 4278190080
0.14802939 -0.085117072 0.16596437 4278190080
0.15071073 -0.084892668 0.16705081 4278190080
0.14629517 -0.08633101 0.16884799 4278190080
0.14874063 -0.086381488 0.17033643 4278190080
0.14897346 -0.085493013 0.1698848 4278190080
0.14699602 -0.085474245 0.16765003 4278190080
0.14788023 -0.082395725 0.16724758 4278190080
0.147499 -0.083867334 0.16670236 4278190080
0.14989527 -0.082234181 0.16811956 4278190080
0.14924738 -0.082458116 0.16917636 4278190080
0.14965273 -0.081770502 0.16846652 4278190080
0.1553124 -0.07343246 0.15326892 4278190080
0.15362607 -0.071455859 0.1560594 4278190080
0.15353927 -0.071704678 0.15595354 4278190080
0.15608369 -0.070893191 0.15427966 4278190080
0.15340453 -0.071497686 0.15615071 4278190080
0.1590514 -0.091533348 0.15968943 4278190080
0.15836219 -0.08883135 0.16055277 4278190080
0.15757662 -0.088171691 0.16175142 4278190080
0.15610611 -0.086670533 0.16397116 4278190080
0.15575702 -0.086104579 0.16447958 4278190080
0.15413816 -0.0855119 0.16701826 4278190080
0.15320478 -0.084732927 0.16844299 4278190080
0.15124293 -0.086850174 0.17177093 4278190080
0.15164945 -0.085270435 0.17098004 4278190080
0.15242723 -0.082061373 0.16944988 4278190080
0.15146342 -0.082394451 0.17102207 4278190080
0.15188061 -0.080218524 0.17016111 4278190080
0.16486959 -0.090224877 0.15565872 4278190080
0.16490369 -0.090182424 0.15560037 4278190080
0.1648389 -0.090215534 0.15555361 4278190080
0.16006933 -0.091758944 0.16251948 4278190080
0.15915698 -0.088979997 0.16254902 4278190080
0.15973651 -0.089058481 0.16377133 4278190080
0.16018209 -0.091844745 0.16330558 4278190080
0.15880243 -0.086440995 0.16503385 4278190080
0.15526162 -0.087645479 0.17066053 4278190080
0.15533738 -0.087713949 0.17069244 4278190080
0.15543684 -0.087604038 0.17052343 4278190080
0.15339667 -0.088175319 0.17281044 4278190080
0.15392335 -0.088629954 0.17303696 4278190080
0.1580666 -0.08515159 0.16609716 4278190080
0.1567079 -0.086474858 0.16838944 4278190080
0.15456763 -0.084854305 0.17082644 4278190080
0.15441778 -0.082033023 0.17133193 4278190080
0.15535197 -0.078725256 0.16919996 4278190080
0.15588902 -0.078626879 0.16900216 4278190080
0.15582906 -0.080007486 0.16922076 4278190080
0.15516554 -0.078876957 0.17018242 4278190080
0.15412857 -0.075962923 0.169035 4278190080
0.15555695 -0.075800769 0.16928272 4278190080
0.15467553 -0.076105371 0.17072065 4278190080
0.15306297 -0.073192425 0.1689686 4278190080
0.15517934 -0.072990991 0.16963752 4278190080
0.15424572 -0.073313653 0.17116044 4278190080
0.16704436 -0.090175435 0.157572 4278190080
0.16730109 -0.089879274 0.15713468 4278190080
0.1622618 -0.091828234 0.16537365 4278190080
0.16205564 -0.08895921 0.1654487 4278190080
0.15950827 -0.08981318 0.16939881 4278190080
0.15960449 -0.089846335 0.16945079 4278190080
0.15962316 -0.089799888 0.16941684 4278190080
0.15943457 -0.089865088 0.16972446 4278190080
0.15613429 -0.09085308 0.17392138 4278190080
0.15672113 -0.091271229 0.1741924 4278190080
0.15718718 -0.090641841 0.17339045 4278190080
0.16073553 -0.086847693 0.16737407 4278190080
0.1602181 -0.086517863 0.16712669 4278190080
0.15828571 -0.087051399 0.16923454 4278190080
0.15803862 -0.089644536 0.17193919 4278190080
0.16030885 -0.083706155 0.16777802 4278190080
0.16030049 -0.08368361 0.16777766 4278190080
0.16030879 -0.083682254 0.16777596 4278190080
0.1602146 -0.083821073 0.16783318 4278190080
0.15913343 -0.086378157 0.16989681 4278190080
0.15786029 -0.084245324 0.16956824 4278190080
0.15823859 -0.08439777 0.17115304 4278190080
0.16029207 -0.083582655 0.16779393 4278190080
0.15725613 -0.081449248 0.16978998 4278190080
0.15971713 -0.08094649 0.16847967 4278190080
0.15794286 -0.08155968 0.17137404 4278190080
0.15908457 -0.078224838 0.16925044 4278190080
0.15767027 -0.078713633 0.17155756 4278190080
0.15877241 -0.075391829 0.16949861 4278190080
0.15722266 -0.075927489 0.17202677 4278190080
0.15827452 -0.072623566 0.17004962 4278190080
0.15665507 -0.07318338 0.17269145 4278190080
0.16917194 -0.090142369 0.15956187 4278190080
0.16967428 -0.089396894 0.15869161 4278190080
0.16371121 -0.090801157 0.16836059 4278190080
0.16292365 -0.08919739 0.16821766 4278190080
0.16431297 -0.091821574 0.16748813 4278190080
0.16213007 -0.09048716 0.17086339 4278190080
0.15894037 -0.090271115 0.17235926 4278190080
0.16069002 -0.091210723 0.17323273 4278190080
0.15991807 -0.093340568 0.17465758 4278190080
0.15863079 -0.093544208 0.17488143 4278190080
0.16347279 -0.083291039 0.16807486 4278190080
0.16309519 -0.086266406 0.16894382 4278190080
0.16142325 -0.085283935 0.17153251 4278190080
0.16088322 -0.084186047 0.17229941 4278190080
0.16017693 -0.080860853 0.16829957 4278190080
0.16263843 -0.080639109 0.16917475 4278190080
0.16061883 -0.081337117 0.1724693 4278190080
0.16197206 -0.077997178 0.17000671 4278190080
0.1619406 -0.077939421 0.17005198 4278190080
0.16017765 -0.078549333 0.1729279 4278190080
0.16129686 -0.075221613 0.17084102 4278190080
0.15982182 -0.075731434 0.17324738 4278190080
0.16092055 -0.072411247 0.17119361 4278190080
0.15890016 -0.073109701 0.17448972 4278190080
0.17159365 -0.087067343 0.1608108 4278190080
0.17170285 -0.087005109 0.16044199 4278190080
0.17086558 -0.090259209 0.16225958 4278190080
0.16462685 -0.091932498 0.16868222 4278190080
0.16459833 -0.090705097 0.17233035 4278190080
0.1657044 -0.092042908 0.17067882 4278190080
0.16320747 -0.091791891 0.17465299 4278190080
0.163 -0.092977621 0.1750904 4278190080
0.17177652 -0.08692053 0.16050506 4278190080
0.16616356 -0.083063304 0.1691459 4278190080
0.16536672 -0.08503627 0.1705969 4278190080
0.16328986 -0.083944209 0.17296067 4278190080
0.16382433 -0.083871819 0.17296225 4278190080
0.16495748 -0.080539875 0.17085229 4278190080
0.163158 -0.081121884 0.17347749 4278190080
0.16339023 -0.081081562 0.17340888 4278190080
0.16208531 -0.077924818 0.17009147 4278190080
0.16446827 -0.077768035 0.17138924 4278190080
0.16362217 -0.0780605 0.17276941 4278190080
0.16239549 -0.078334585 0.17360045 4278190080
0.16258749 -0.075067334 0.17100467 4278190080
0.16410373 -0.074953742 0.17172264 4278190080
0.16288273 -0.07537581 0.17371459 4278190080
0.16230108 -0.075509645 0.174141 4278190080
0.16218279 -0.072260089 0.1713513 4278190080
0.16388069 -0.072090402 0.17182527 4278190080
0.16246778 -0.075019173 0.17434712 4278190080
0.16136478 -0.072960101 0.17592956 4278190080
0.1710995 -0.090294369 0.16278064 4278190080
0.1710854 -0.087465562 0.16337135 4278190080
0.17152831 -0.089791536 0.16655558 4278190080
0.17204368 -0.09055417 0.16579819 4278190080
0.17022938 -0.087939397 0.16615173 4278190080
0.17044862 -0.088165201 0.16813913 4278190080
0.16703027 -0.090655915 0.1738317 4278190080
0.16789933 -0.091986597 0.17255893 4278190080
0.16574214 -0.092498608 0.17605698 4278190080
0.16573714 -0.092733882 0.17608598 4278190080
0.17333922 -0.084084556 0.16206384 4278190080
0.17113462 -0.084633216 0.16400161 4278190080
0.16914614 -0.085169859 0.16607448 4278190080
0.1696308 -0.087148644 0.1693579 4278190080
0.16708887 -0.085710302 0.16810432 4278190080
0.16839111 -0.085935958 0.17123425 4278190080
0.17373523 -0.083387479 0.16245434 4278190080
0.17223364 -0.08365871 0.16488189 4278190080
0.17080197 -0.084444255 0.16724321 4278190080
0.16908891 -0.083158903 0.1698706 4278190080
0.16888611 -0.082824595 0.17016543 4278190080
0.16785856 -0.085427709 0.17204159 4278190080
0.16650985 -0.08364594 0.17404211 4278190080
0.16725501 -0.080448098 0.17256509 4278190080
0.16702148 -0.080528788 0.17294602 4278190080
0.16707118 -0.079630949 0.17278676 4278190080
0.16547 -0.077737086 0.17220615 4278190080
0.17237625 -0.073381372 0.16374056 4278190080
0.17213117 -0.072881512 0.16408829 4278190080
0.17196305 -0.072841749 0.16360156 4278190080
0.16652516 -0.074819155 0.1732334 4278190080
0.1665736 -0.07596644 0.17325784 4278190080
0.16500992 -0.075781673 0.17574392 4278190080
0.16363516 -0.075435624 0.17497446 4278190080
0.16432767 -0.0755786 0.17681785 4278190080
0.17126274 -0.07024134 0.16524385 4278190080
0.17119235 -0.070054874 0.16371955 4278190080
0.1665365 -0.071874857 0.17295362 4278190080
0.16338772 -0.075164601 0.17828564 4278190080
0.16181573 -0.073133253 0.17775239 4278190080
0.16181105 -0.073508024 0.18066202 4278190080
0.15344991 -0.071046688 0.15603812 4278190080
0.15536545 -0.068103299 0.15443052 4278190080
0.15382999 -0.068410218 0.15519543 4278190080
0.15362605 -0.071455784 0.1560594 4278190080
0.15608366 -0.070893116 0.15427969 4278190080
0.1534045 -0.071497597 0.15615071 4278190080
0.15427674 -0.065808117 0.15424924 4278190080
0.14842027 -0.064960964 0.16786651 4278190080
0.14914078 -0.064852379 0.16778331 4278190080
0.14899457 -0.065598361 0.16808353 4278190080
0.14869519 -0.065006383 0.16851006 4278190080
0.15367411 -0.061371963 0.15481955 4278190080
0.15376762 -0.059703317 0.1552304 4278190080
0.15273724 -0.059967246 0.15619448 4278190080
0.14795682 -0.061731011 0.16486114 4278190080
0.15038241 -0.061483242 0.16549635 4278190080
0.15009408 -0.062366858 0.16603646 4278190080
0.14617826 -0.062256008 0.16706516 4278190080
0.14776883 -0.062386483 0.16975993 4278190080
0.15286794 -0.057349943 0.15858316 4278190080
0.15180171 -0.058913499 0.15759841 4278190080
0.15427756 -0.056845333 0.15614852 4278190080
0.1530654 -0.057615712 0.16085845 4278190080
0.15259227 -0.05810643 0.16165951 4278190080
0.15031454 -0.059291024 0.16001227 4278190080
0.14887829 -0.060043558 0.16237807 4278190080
0.15126842 -0.059686571 0.1639187 4278190080
0.14754403 -0.061547004 0.16464707 4278190080
0.14608535 -0.062134326 0.16703399 4278190080
0.14479919 -0.059770264 0.16888236 4278190080
0.14675494 -0.059796602 0.17115279 4278190080
0.15534872 -0.055747248 0.157038 4278190080
0.15389293 -0.056355581 0.15942222 4278190080
0.14657436 -0.059107818 0.17138056 4278190080
0.14414676 -0.059189551 0.16987507 4278190080
0.1431897 -0.057386145 0.17124654 4278190080
0.14584349 -0.057171199 0.17237838 4278190080
0.15165152 -0.052184165 0.16233745 4278190080
0.15179865 -0.052263834 0.16241077 4278190080
0.15214124 -0.05205423 0.16184381 4278190080
0.14969906 -0.052718833 0.164433 4278190080
0.15032941 -0.052773826 0.16480756 4278190080
0.15015522 -0.052740537 0.16508347 4278190080
0.14457969 -0.055750325 0.17427476 4278190080
0.14220238 -0.056201946 0.17272164 4278190080
0.1518244 -0.070431381 0.16879432 4278190080
0.15216915 -0.070388645 0.16882621 4278190080
0.15226126 -0.071693778 0.16879465 4278190080
0.15175284 -0.070532545 0.1695054 4278190080
0.15077317 -0.067660026 0.16873701 4278190080
0.15194471 -0.067525841 0.16893093 4278190080
0.15120013 -0.067783207 0.17014553 4278190080
0.1522751 -0.064471371 0.16813083 4278190080
0.15055223 -0.06506677 0.17094125 4278190080
0.15356307 -0.061086267 0.16576862 4278190080
0.15271278 -0.063692354 0.1673611 4278190080
0.14988944 -0.062355809 0.17176121 4278190080
0.15618333 -0.057240322 0.16123301 4278190080
0.15505549 -0.058287397 0.16313121 4278190080
0.15380475 -0.060405329 0.16532123 4278190080
0.14951658 -0.059544351 0.17210838 4278190080
0.15638611 -0.056754854 0.16086578 4278190080
0.15769108 -0.055035558 0.15862453 4278190080
0.14748928 -0.05695026 0.17239854 4278190080
0.14941329 -0.056639683 0.17201567 4278190080
0.15530695 -0.051128764 0.1579909 4278190080
0.15369372 -0.051644601 0.1602982 4278190080
0.15582286 -0.052610204 0.16139883 4278190080
0.15725276 -0.05180902 0.15903944 4278190080
0.15436096 -0.053173907 0.16378862 4278190080
0.15283756 -0.053285144 0.16623676 4278190080
0.15165505 -0.052924357 0.16809732 4278190080
0.1489664 -0.053612098 0.17060572 4278190080
0.14994648 -0.054653525 0.17098582 4278190080
0.15068506 -0.053259581 0.16967964 4278190080
0.14857237 -0.055864241 0.17329264 4278190080
0.14938453 -0.053709053 0.17180121 4278190080
0.14705524 -0.056021117 0.17573477 4278190080
0.15517932 -0.072990902 0.16963752 4278190080
0.15306297 -0.073192365 0.16896863 4278190080
0.15491435 -0.070142031 0.16980858 4278190080
0.15424572 -0.073313579 0.17116047 4278190080
0.15394062 -0.070478626 0.17139708 4278190080
0.15479392 -0.067243338 0.16974364 4278190080
0.15372948 -0.067611232 0.17148001 4278190080
0.1533867 -0.064259045 0.1676542 4278190080
0.15575358 -0.063971393 0.16791709 4278190080
0.1554547 -0.065924518 0.16856904 4278190080
0.15346539 -0.064762205 0.17164974 4278190080
0.15469711 -0.060930736 0.16575697 4278190080
0.15674762 -0.060688082 0.16603473 4278190080
0.15640761 -0.061612334 0.16666099 4278190080
0.15293808 -0.062004413 0.17224863 4278190080
0.15844168 -0.057040755 0.16206542 4278190080
0.1589482 -0.0569872 0.16218391 4278190080
0.15886374 -0.05704179 0.16232389 4278190080
0.15750928 -0.058396924 0.16461211 4278190080
0.15262593 -0.059171971 0.17249653 4278190080
0.16016641 -0.055305876 0.16008469 4278190080
0.15141855 -0.056305937 0.17153797 4278190080
0.1528475 -0.058057997 0.172043 4278190080
0.15328152 -0.056005061 0.17116582 4278190080
0.15830259 -0.052910615 0.16285503 4278190080
0.159668 -0.051636394 0.16055658 4278190080
0.15689993 -0.053911131 0.16518882 4278190080
0.1553843 -0.054081187 0.16762942 4278190080
0.15192351 -0.053021744 0.16913781 4278190080
0.15388058 -0.054337114 0.17005891 4278190080
0.15187764 -0.053549636 0.17319483 4278190080
0.15102123 -0.055939436 0.17477772 4278190080
0.14961454 -0.056909103 0.1771155 4278190080
0.15828608 -0.069646508 0.1695161 4278190080
0.1584439 -0.069624558 0.16951199 4278190080
0.15845419 -0.070051163 0.16953348 4278190080
0.1582745 -0.072623491 0.17004962 4278190080
0.15665503 -0.073183306 0.17269142 4278190080
0.1563691 -0.070341736 0.17289655 4278190080
0.1565382 -0.066913873 0.16902353 4278190080
0.15842997 -0.066689104 0.16927366 4278190080
0.15632077 -0.067418076 0.17271431 4278190080
0.15863605 -0.063677534 0.16867609 4278190080
0.15632309 -0.064476974 0.17244931 4278190080
0.15543492 -0.064571813 0.17224924 4278190080
0.15627697 -0.065348841 0.17260064 4278190080
0.15971906 -0.060363349 0.16664815 4278190080
0.15899898 -0.062736034 0.16801168 4278190080
0.15487675 -0.061773378 0.17249975 4278190080
0.15612072 -0.061606694 0.17251739 4278190080
0.15999897 -0.056954335 0.16303831 4278190080
0.16140521 -0.0568402 0.16363618 4278190080
0.16169517 -0.056433897 0.16078296 4278190080
0.16279204 -0.056683168 0.16140261 4278190080
0.16119441 -0.056913037 0.16398004 4278190080
0.15998948 -0.058702316 0.16606778 4278190080
0.15419224 -0.058981758 0.17267165 4278190080
0.15583043 -0.058766719 0.17272976 4278190080
0.16126165 -0.05674253 0.16385731 4278190080
0.15975992 -0.054468218 0.1660589 4278190080
0.15854871 -0.054631215 0.16604698 4278190080
0.15952715 -0.055299733 0.16650522 4278190080
0.15633823 -0.055180501 0.16798109 4278190080
0.15809734 -0.056098882 0.16886488 4278190080
0.15633227 -0.055607144 0.17129254 4278190080
0.15651281 -0.055760261 0.17137077 4278190080
0.15357199 -0.056764543 0.17616659 4278190080
0.15328486 -0.056628697 0.17601934 4278190080
0.15369731 -0.056563534 0.17594808 4278190080
0.15218298 -0.057864737 0.17848748 4278190080
0.15053718 -0.057207447 0.17761776 4278190080
0.16146961 -0.050937109 0.16300866 4278190080
0.16092479 -0.050817184 0.16150066 4278190080
0.1606466 -0.052214246 0.16443962 4278190080
0.15457711 -0.053318903 0.17425182 4278190080
0.1609834 -0.069449082 0.17082973 4278190080
0.16103254 -0.071079902 0.1708961 4278190080
0.16092056 -0.072411172 0.17119364 4278190080
0.15890013 -0.073109627 0.17448972 4278190080
0.1590129 -0.070130169 0.17404442 4278190080
0.16111243 -0.06646423 0.17035805 4278190080
0.15858673 -0.067226633 0.17361872 4278190080
0.15901041 -0.067519322 0.17381646 4278190080
0.15907286 -0.067169204 0.17368551 4278190080
0.16029137 -0.063449711 0.16865279 4278190080
0.16186033 -0.06326542 0.16887693 4278190080
0.16166587 -0.064417504 0.16929041 4278190080
0.15924326 -0.06417001 0.17314635 4278190080
0.16197965 -0.060100447 0.16699162 4278190080
0.16283344 -0.059989206 0.1670281 4278190080
0.16265544 -0.060376912 0.1673474 4278190080
0.1593907 -0.06117899 0.17264426 4278190080
0.16387051 -0.05799593 0.1651912 4278190080
